ncols        263
nrows        79
xllcorner    -76.7228661674
yllcorner    -11.9389102312
cellsize     0.000113713219
NODATA_value 0
0 1172 1168 1168 1166 1164 1163 1161 1158 1155 1151 1149 1147 1145 1141 1137 1133 1127 1120 1111 1103 1094 1086 1081 1077 1071 1066 1061 1056 1053 1050 1047 1044 1041 1040 1039 1039 1039 1039 1039 1040 1042 1046 1052 1058 1064 1070 1077 1084 1091 1098 1106 1114 1121 1126 1131 1135 1139 1143 1147 1152 1156 1159 1164 1168 1175 1184 1195 1206 1218 1229 1236 1242 1247 1252 1258 1265 1272 1276 1280 1284 1288 1292 1295 1297 1300 1303 1307 1313 1320 1325 1329 1334 1340 1345 1349 1352 1356 1359 1363 1366 1368 1369 1368 1369 1369 1372 1377 1382 1385 1385 1381 1374 1374 1368 1363 1358 1351 1342 1332 1319 1305 1290 1275 1266 1261 1258 1253 1248 1240 1231 1223 1216 1209 1203 1198 1193 1188 1183 1177 1172 1166 1162 1156 1150 1144 1137 1130 1123 1119 1114 1108 1101 1095 1089 1084 1080 1077 1074 1071 1067 1062 1057 1053 1049 1045 1041 1037 1035 1033 1031 1027 1024 1021 1019 1017 1016 1014 1012 1010 1008 1006 1005 1004 1003 1003 1003 1004 1006 1009 1013 1018 1024 1032 1041 1052 1062 1071 1079 1089 1098 1107 1117 1127 1137 1146 1154 1162 1168 1174 1178 1181 1183 1181 1177 1172 1166 1159 1152 1144 1137 1129 1121 1113 1113 1103 1088 1068 1051 1038 1029 1025 1025 1024 1023 1020 1013 1004 992 978 967 963 962 961 961 962 963 964 965 967 970 972 975 980 984 984 983 980 976 971 965 959 951
0 1180 1177 1177 1174 1172 1170 1168 1164 1160 1156 1153 1151 1148 1145 1141 1135 1128 1119 1110 1101 1092 1085 1079 1075 1069 1063 1058 1054 1051 1049 1047 1044 1041 1039 1039 1039 1038 1038 1038 1039 1042 1047 1053 1058 1063 1068 1075 1083 1091 1099 1106 1112 1118 1123 1128 1131 1134 1137 1140 1144 1148 1153 1158 1163 1170 1179 1190 1201 1213 1224 1232 1238 1244 1249 1254 1259 1265 1270 1275 1279 1284 1287 1289 1290 1294 1299 1304 1308 1312 1316 1320 1324 1329 1334 1337 1340 1345 1350 1354 1357 1359 1360 1360 1362 1364 1367 1373 1379 1380 1382 1378 1370 1362 1362 1358 1356 1349 1341 1329 1313 1297 1283 1270 1262 1259 1255 1250 1244 1236 1226 1218 1211 1204 1198 1193 1188 1182 1177 1171 1166 1161 1156 1151 1145 1138 1131 1124 1118 1114 1109 1103 1097 1090 1084 1079 1076 1073 1070 1068 1065 1060 1054 1051 1047 1043 1038 1035 1033 1031 1028 1024 1021 1019 1017 1015 1014 1012 1009 1007 1006 1005 1004 1003 1003 1003 1003 1004 1005 1008 1012 1017 1025 1034 1043 1054 1062 1068 1076 1086 1098 1108 1118 1128 1137 1146 1154 1160 1166 1173 1178 1180 1180 1178 1174 1169 1164 1157 1150 1142 1135 1127 1120 1111 1101 1101 1089 1074 1060 1044 1031 1026 1025 1023 1021 1018 1010 999 987 973 963 960 959 958 957 957 956 957 958 961 963 965 968 973 976 977 976 973 969 963 957 950 942
0 1189 1185 1183 1183 1180 1178 1174 1170 1164 1160 1156 1153 1150 1148 1143 1136 1127 1118 1108 1099 1090 1083 1078 1073 1067 1061 1056 1052 1049 1047 1046 1044 1041 1039 1038 1038 1038 1037 1038 1039 1042 1048 1055 1059 1061 1065 1073 1082 1090 1099 1106 1110 1114 1119 1123 1127 1129 1131 1133 1136 1141 1147 1153 1159 1166 1175 1185 1197 1209 1220 1228 1235 1241 1247 1251 1255 1259 1264 1270 1275 1278 1281 1281 1282 1287 1294 1300 1303 1305 1308 1311 1315 1319 1323 1326 1329 1334 1340 1344 1347 1350 1351 1352 1355 1359 1364 1370 1375 1376 1373 1373 1364 1357 1354 1354 1352 1346 1338 1326 1308 1290 1277 1266 1259 1256 1252 1247 1241 1233 1224 1215 1207 1200 1194 1189 1183 1177 1171 1165 1159 1154 1150 1146 1140 1133 1127 1119 1113 1108 1104 1098 1093 1087 1080 1075 1071 1068 1066 1065 1061 1056 1051 1047 1043 1040 1035 1032 1030 1027 1025 1022 1020 1018 1016 1014 1012 1010 1007 1005 1003 1003 1002 1002 1002 1002 1002 1003 1004 1007 1011 1017 1026 1036 1045 1054 1062 1068 1075 1085 1098 1108 1117 1126 1136 1145 1153 1159 1166 1172 1177 1178 1176 1174 1171 1167 1162 1155 1148 1140 1132 1125 1117 1107 1097 1097 1088 1080 1069 1052 1037 1028 1025 1022 1020 1016 1006 993 981 968 959 957 957 955 953 952 951 950 951 953 956 959 962 966 970 970 969 967 962 956 949 940 933
0 1197 1194 1192 1189 1189 1186 1181 1175 1168 1162 1158 1154 1151 1147 1141 1133 1125 1116 1107 1098 1089 1081 1075 1070 1064 1058 1053 1050 1047 1046 1045 1043 1041 1039 1038 1038 1037 1036 1037 1038 1041 1047 1054 1058 1061 1065 1071 1078 1086 1096 1103 1108 1112 1116 1119 1121 1122 1124 1127 1130 1136 1142 1149 1155 1162 1172 1182 1193 1206 1216 1225 1233 1239 1245 1250 1253 1257 1261 1266 1269 1271 1273 1273 1275 1280 1288 1294 1297 1299 1302 1304 1308 1313 1317 1320 1323 1327 1332 1336 1339 1342 1344 1346 1350 1355 1360 1367 1372 1373 1370 1365 1360 1352 1350 1350 1349 1344 1336 1323 1305 1286 1274 1266 1259 1255 1250 1244 1237 1229 1221 1213 1204 1196 1190 1185 1179 1172 1165 1158 1152 1148 1145 1141 1135 1129 1123 1116 1109 1104 1099 1094 1089 1083 1076 1071 1067 1063 1062 1060 1057 1053 1048 1043 1039 1036 1032 1029 1026 1024 1022 1020 1018 1016 1014 1012 1009 1007 1004 1002 1001 1001 1001 1001 1001 1001 1001 1002 1004 1007 1011 1017 1027 1038 1047 1055 1063 1068 1075 1085 1097 1107 1115 1123 1134 1144 1152 1159 1165 1171 1174 1175 1173 1170 1167 1163 1159 1153 1145 1136 1128 1121 1113 1103 1093 1086 1086 1084 1076 1060 1043 1033 1026 1020 1018 1014 1002 988 976 965 958 956 955 953 950 948 945 944 944 946 948 952 956 960 963 964 963 960 954 948 940 931 924
0 1207 1202 1201 1198 1194 1194 1188 1180 1172 1164 1159 1154 1149 1144 1137 1130 1122 1114 1106 1097 1088 1080 1073 1067 1061 1055 1051 1048 1045 1044 1043 1042 1041 1040 1038 1037 1036 1035 1035 1037 1040 1045 1051 1056 1060 1065 1068 1073 1080 1090 1098 1105 1111 1113 1114 1115 1115 1117 1121 1125 1131 1137 1144 1151 1160 1169 1180 1191 1203 1214 1223 1230 1237 1243 1249 1253 1257 1260 1262 1263 1263 1263 1265 1268 1273 1281 1286 1290 1294 1296 1298 1302 1308 1313 1317 1320 1323 1325 1327 1331 1335 1337 1340 1345 1351 1357 1365 1370 1371 1367 1363 1357 1351 1349 1348 1348 1343 1335 1322 1304 1286 1276 1271 1265 1259 1252 1242 1233 1224 1218 1210 1201 1193 1187 1183 1177 1169 1161 1153 1147 1142 1140 1137 1131 1125 1119 1112 1106 1101 1095 1090 1085 1079 1073 1067 1063 1059 1056 1055 1052 1048 1044 1039 1035 1031 1029 1026 1024 1022 1019 1017 1015 1014 1012 1010 1007 1005 1002 1000 1000 1001 1001 1001 1001 1000 1001 1002 1004 1007 1011 1018 1028 1039 1048 1056 1063 1069 1076 1085 1095 1104 1112 1121 1131 1142 1150 1156 1162 1168 1172 1171 1169 1166 1162 1158 1154 1149 1140 1130 1122 1114 1107 1099 1090 1085 1083 1083 1078 1065 1051 1039 1027 1019 1014 1009 998 986 976 967 960 958 956 952 948 945 941 939 939 939 941 945 949 953 956 957 956 953 946 938 930 922 916
0 1213 1209 1208 1206 1200 1200 1193 1185 1175 1167 1160 1154 1148 1141 1134 1127 1119 1112 1105 1097 1088 1079 1072 1066 1059 1053 1049 1045 1043 1042 1042 1041 1041 1040 1038 1036 1034 1033 1033 1035 1038 1043 1049 1054 1059 1063 1065 1068 1075 1085 1093 1101 1107 1109 1109 1109 1110 1112 1116 1121 1127 1133 1141 1148 1157 1167 1178 1189 1201 1211 1219 1227 1234 1240 1246 1251 1254 1256 1256 1256 1255 1255 1257 1260 1265 1272 1277 1282 1285 1287 1288 1293 1299 1306 1311 1315 1316 1317 1319 1322 1327 1331 1335 1341 1347 1354 1361 1367 1368 1365 1362 1358 1353 1351 1349 1344 1344 1334 1322 1304 1288 1281 1279 1274 1266 1255 1242 1228 1219 1214 1208 1199 1191 1186 1182 1176 1166 1157 1149 1142 1138 1136 1133 1128 1121 1115 1109 1103 1098 1093 1087 1082 1076 1070 1065 1059 1054 1051 1049 1047 1043 1039 1035 1030 1027 1025 1024 1022 1020 1017 1014 1012 1010 1009 1007 1005 1003 1001 999 1000 1001 1001 1000 1000 1000 1001 1002 1004 1008 1012 1019 1029 1040 1049 1057 1064 1071 1078 1085 1093 1100 1109 1118 1129 1139 1147 1153 1159 1165 1168 1168 1165 1161 1156 1151 1147 1142 1134 1123 1114 1106 1100 1094 1088 1084 1081 1081 1076 1069 1059 1045 1029 1017 1009 1002 994 987 980 972 966 961 957 952 947 942 938 935 934 934 935 939 942 946 950 951 950 946 937 928 921 914 910
0 1218 1213 1213 1211 1205 1197 1197 1189 1180 1171 1162 1153 1146 1139 1132 1125 1118 1111 1104 1096 1087 1079 1072 1066 1059 1052 1047 1043 1040 1040 1041 1041 1041 1040 1038 1035 1033 1031 1031 1033 1036 1040 1046 1050 1055 1059 1061 1065 1072 1080 1088 1096 1101 1103 1103 1104 1106 1109 1113 1119 1124 1131 1138 1146 1155 1165 1177 1188 1199 1208 1216 1223 1230 1236 1241 1245 1247 1249 1249 1249 1248 1248 1249 1251 1255 1261 1266 1270 1274 1275 1275 1280 1288 1295 1301 1305 1307 1308 1310 1313 1318 1324 1330 1336 1343 1349 1357 1363 1365 1364 1362 1358 1355 1354 1350 1344 1344 1335 1322 1305 1290 1284 1284 1279 1270 1258 1242 1226 1217 1212 1206 1199 1192 1187 1183 1176 1166 1155 1147 1139 1135 1133 1130 1124 1118 1111 1105 1099 1095 1090 1084 1078 1072 1067 1062 1056 1050 1047 1045 1042 1039 1036 1031 1026 1024 1023 1022 1020 1018 1015 1012 1009 1007 1006 1004 1003 1001 1000 999 1000 1001 1000 1000 1000 1000 1001 1002 1005 1008 1013 1020 1031 1042 1050 1058 1065 1073 1080 1086 1093 1100 1108 1117 1128 1138 1145 1151 1156 1162 1164 1163 1159 1155 1149 1144 1141 1136 1127 1115 1106 1099 1094 1089 1086 1082 1077 1073 1073 1069 1063 1049 1031 1016 1004 995 990 987 982 976 971 964 958 952 945 940 935 931 929 929 930 933 936 940 943 944 943 939 929 920 913 909 906
0 1221 1217 1216 1214 1208 1199 1191 1191 1182 1173 1162 1152 1144 1137 1130 1124 1117 1111 1104 1096 1088 1080 1073 1066 1059 1052 1046 1041 1038 1038 1040 1040 1041 1040 1037 1034 1031 1029 1028 1030 1033 1037 1042 1047 1051 1055 1058 1061 1067 1076 1083 1089 1094 1096 1097 1099 1102 1106 1111 1116 1122 1128 1135 1143 1152 1163 1176 1186 1196 1205 1212 1218 1224 1230 1235 1238 1240 1241 1241 1241 1241 1241 1241 1243 1245 1250 1254 1258 1262 1263 1263 1268 1276 1283 1290 1295 1298 1299 1301 1305 1310 1317 1325 1332 1338 1344 1352 1359 1362 1362 1361 1359 1356 1354 1352 1345 1336 1336 1323 1307 1292 1285 1284 1279 1270 1258 1243 1228 1217 1211 1205 1201 1196 1191 1187 1179 1167 1155 1145 1138 1133 1131 1128 1121 1114 1107 1101 1095 1090 1086 1080 1074 1068 1064 1059 1053 1048 1044 1042 1039 1036 1033 1029 1024 1022 1021 1020 1018 1016 1013 1009 1007 1005 1003 1002 1002 1001 1000 999 999 999 999 999 999 999 1000 1002 1005 1009 1014 1021 1032 1043 1051 1058 1066 1074 1083 1089 1096 1103 1112 1120 1128 1136 1143 1150 1155 1158 1160 1157 1153 1148 1142 1137 1133 1129 1119 1107 1098 1092 1088 1085 1083 1079 1073 1068 1066 1066 1062 1049 1032 1016 1000 988 985 985 983 980 975 967 958 951 943 937 932 927 925 925 926 929 932 934 937 937 936 931 922 913 908 905 903
0 1224 1219 1217 1214 1207 1198 1190 1190 1181 1171 1161 1150 1143 1136 1130 1124 1118 1112 1105 1098 1089 1081 1074 1066 1059 1051 1045 1041 1038 1038 1039 1040 1040 1038 1035 1032 1029 1026 1026 1028 1030 1034 1039 1043 1047 1051 1053 1057 1062 1070 1076 1082 1086 1089 1091 1094 1098 1102 1108 1113 1119 1125 1132 1140 1149 1161 1173 1183 1191 1198 1205 1211 1217 1224 1229 1231 1233 1234 1233 1233 1233 1233 1233 1234 1235 1238 1242 1246 1250 1252 1253 1257 1265 1272 1278 1284 1288 1291 1295 1299 1304 1311 1319 1326 1333 1340 1348 1354 1358 1361 1361 1359 1356 1354 1351 1344 1335 1323 1323 1308 1293 1286 1283 1277 1269 1258 1244 1229 1218 1211 1206 1203 1200 1196 1191 1182 1169 1156 1146 1138 1132 1130 1126 1119 1111 1104 1098 1092 1087 1082 1076 1070 1065 1061 1056 1051 1046 1042 1040 1037 1034 1031 1027 1023 1021 1020 1019 1016 1014 1010 1007 1004 1002 1001 1000 1000 1000 999 999 998 998 998 998 998 999 1000 1002 1005 1010 1015 1022 1032 1043 1051 1058 1066 1076 1085 1092 1099 1107 1115 1122 1129 1135 1141 1148 1152 1154 1154 1151 1146 1141 1134 1128 1125 1120 1111 1099 1090 1086 1083 1081 1079 1075 1069 1063 1061 1061 1058 1047 1032 1016 997 983 981 984 984 982 978 968 958 949 941 934 928 924 922 922 923 925 927 930 931 931 929 925 916 908 904 902 902
0 1226 1221 1217 1212 1204 1195 1186 1177 1177 1168 1158 1149 1142 1136 1130 1125 1119 1114 1107 1100 1091 1083 1075 1067 1058 1051 1045 1041 1039 1038 1039 1039 1038 1036 1033 1030 1027 1024 1024 1025 1028 1031 1036 1039 1043 1046 1049 1052 1057 1063 1069 1074 1079 1082 1085 1089 1094 1099 1104 1110 1116 1121 1128 1137 1146 1157 1169 1178 1185 1191 1197 1203 1210 1217 1222 1225 1226 1226 1225 1225 1225 1225 1225 1225 1225 1227 1230 1234 1238 1241 1244 1248 1254 1260 1267 1273 1279 1284 1289 1294 1299 1305 1312 1320 1328 1336 1343 1349 1354 1358 1360 1358 1355 1352 1348 1340 1329 1321 1307 1307 1293 1286 1283 1276 1267 1256 1242 1228 1218 1213 1208 1205 1202 1198 1194 1186 1173 1161 1150 1140 1133 1129 1125 1118 1111 1104 1096 1090 1084 1079 1073 1068 1063 1059 1055 1050 1046 1042 1038 1035 1032 1029 1026 1022 1020 1019 1017 1015 1012 1008 1004 1002 1000 999 999 998 998 998 998 997 996 996 997 998 998 1000 1002 1005 1009 1015 1022 1031 1041 1049 1057 1067 1078 1087 1095 1101 1108 1116 1122 1129 1134 1140 1146 1149 1149 1147 1143 1138 1132 1124 1117 1114 1111 1102 1091 1084 1081 1079 1077 1075 1070 1064 1059 1055 1051 1051 1042 1029 1015 996 981 980 984 984 982 976 967 957 948 939 932 926 921 919 919 920 922 924 926 927 926 924 920 912 906 902 901 901
0 1227 1221 1216 1210 1201 1192 1182 1173 1164 1164 1156 1148 1141 1135 1130 1126 1121 1115 1108 1100 1092 1083 1075 1067 1059 1051 1045 1042 1040 1039 1039 1038 1036 1034 1031 1027 1025 1023 1022 1024 1026 1029 1033 1036 1039 1042 1045 1048 1052 1057 1062 1068 1073 1076 1080 1084 1089 1094 1100 1107 1113 1118 1125 1134 1143 1154 1165 1173 1179 1184 1190 1196 1203 1211 1216 1218 1218 1218 1217 1217 1217 1216 1216 1215 1216 1217 1219 1223 1228 1231 1235 1240 1245 1251 1257 1263 1269 1276 1282 1288 1294 1301 1307 1314 1322 1329 1335 1341 1347 1352 1355 1355 1352 1349 1344 1336 1323 1312 1305 1305 1293 1286 1283 1276 1265 1253 1239 1227 1219 1215 1212 1207 1203 1200 1197 1190 1178 1166 1155 1143 1135 1130 1124 1118 1111 1104 1097 1090 1083 1077 1071 1066 1062 1058 1054 1050 1047 1042 1038 1034 1031 1028 1025 1022 1020 1018 1016 1013 1010 1006 1002 999 998 998 997 997 997 997 997 996 995 995 996 997 998 999 1001 1005 1009 1015 1021 1029 1037 1046 1056 1067 1079 1089 1096 1102 1109 1115 1122 1128 1134 1140 1144 1146 1144 1140 1135 1129 1122 1113 1107 1103 1100 1093 1084 1078 1076 1074 1072 1069 1065 1060 1054 1049 1042 1034 1034 1025 1012 995 982 981 985 983 979 974 965 956 947 938 930 924 919 917 917 918 920 921 923 924 922 920 916 910 905 902 900 900
0 1227 1222 1216 1208 1198 1187 1178 1169 1161 1161 1154 1147 1141 1135 1130 1126 1122 1116 1108 1100 1091 1082 1075 1067 1059 1052 1047 1043 1041 1039 1038 1036 1034 1031 1028 1024 1023 1022 1022 1023 1025 1027 1030 1033 1035 1038 1041 1044 1047 1051 1056 1063 1068 1072 1076 1079 1083 1088 1095 1103 1109 1116 1123 1131 1140 1150 1160 1167 1172 1178 1184 1190 1197 1204 1209 1210 1210 1209 1208 1208 1207 1207 1206 1206 1206 1208 1210 1214 1218 1222 1226 1231 1237 1243 1248 1253 1260 1267 1274 1282 1289 1296 1303 1309 1315 1321 1327 1332 1338 1344 1347 1349 1348 1345 1340 1329 1315 1303 1301 1292 1292 1286 1283 1275 1264 1252 1240 1228 1221 1218 1215 1211 1206 1202 1198 1191 1180 1169 1158 1147 1138 1130 1123 1117 1111 1105 1099 1092 1085 1078 1071 1066 1061 1058 1054 1051 1047 1042 1037 1033 1030 1027 1025 1022 1019 1017 1015 1012 1008 1004 1000 997 996 996 996 995 995 995 995 994 993 993 994 996 997 999 1001 1004 1008 1014 1021 1028 1036 1045 1055 1066 1077 1088 1096 1103 1109 1115 1121 1128 1134 1138 1141 1141 1137 1133 1127 1120 1113 1105 1099 1094 1090 1084 1076 1072 1070 1068 1066 1063 1059 1054 1049 1043 1036 1028 1028 1019 1007 993 982 982 985 983 978 972 964 956 947 939 930 923 917 915 915 915 917 918 920 920 918 915 912 907 903 901 900 900
0 1226 1220 1213 1205 1195 1183 1174 1165 1158 1152 1152 1146 1140 1134 1129 1126 1122 1114 1106 1097 1089 1081 1074 1067 1061 1054 1049 1045 1042 1040 1038 1035 1032 1029 1025 1022 1021 1021 1021 1022 1024 1026 1028 1030 1031 1034 1036 1039 1043 1046 1051 1058 1064 1068 1072 1075 1078 1083 1091 1099 1106 1113 1121 1129 1138 1146 1155 1162 1167 1172 1178 1185 1191 1198 1202 1202 1201 1201 1200 1199 1199 1198 1198 1198 1198 1200 1203 1206 1210 1214 1219 1224 1230 1236 1241 1245 1252 1259 1267 1275 1284 1291 1299 1304 1309 1314 1319 1325 1330 1336 1340 1344 1344 1341 1334 1324 1309 1298 1292 1290 1285 1285 1282 1276 1265 1254 1242 1231 1225 1222 1219 1215 1210 1205 1198 1190 1180 1169 1159 1150 1140 1130 1121 1116 1112 1107 1102 1096 1089 1082 1073 1066 1061 1058 1055 1051 1047 1042 1037 1032 1029 1027 1024 1022 1019 1017 1014 1010 1006 1002 998 995 995 995 995 994 994 993 992 991 991 992 993 994 997 999 1001 1003 1007 1014 1021 1029 1037 1046 1055 1064 1074 1084 1094 1102 1109 1115 1120 1127 1133 1136 1137 1135 1131 1125 1118 1111 1104 1099 1093 1086 1080 1074 1069 1066 1064 1062 1059 1055 1052 1048 1043 1038 1032 1023 1011 1011 1001 990 983 984 986 984 977 970 964 957 949 941 933 923 916 913 912 913 914 915 916 916 914 911 908 904 901 900 899 900
0 1221 1216 1210 1202 1192 1180 1171 1163 1156 1150 1145 1145 1139 1133 1128 1123 1118 1110 1101 1094 1086 1080 1074 1068 1062 1056 1051 1046 1043 1040 1038 1035 1031 1028 1024 1020 1019 1019 1019 1021 1022 1023 1024 1026 1027 1029 1032 1035 1038 1042 1048 1055 1061 1065 1068 1071 1074 1079 1086 1095 1103 1112 1120 1128 1136 1144 1151 1157 1162 1167 1172 1178 1185 1191 1194 1193 1192 1191 1191 1191 1192 1192 1192 1192 1193 1195 1197 1200 1204 1209 1215 1220 1226 1231 1235 1239 1245 1251 1258 1267 1276 1285 1294 1301 1306 1310 1314 1318 1324 1330 1335 1339 1340 1336 1329 1319 1306 1297 1293 1290 1285 1285 1282 1276 1266 1255 1245 1235 1228 1225 1222 1218 1214 1207 1199 1191 1180 1171 1163 1155 1145 1133 1123 1118 1113 1109 1106 1101 1094 1086 1077 1067 1062 1059 1057 1052 1047 1042 1037 1032 1029 1026 1023 1021 1018 1015 1012 1008 1003 1000 996 994 994 994 993 993 992 990 989 989 990 990 991 992 996 999 1001 1003 1007 1013 1020 1029 1037 1045 1054 1062 1071 1080 1091 1101 1109 1114 1119 1125 1131 1133 1132 1130 1124 1118 1111 1104 1098 1093 1088 1081 1073 1068 1063 1060 1057 1055 1051 1047 1043 1040 1037 1033 1028 1018 1005 996 996 989 984 985 986 983 977 970 964 958 950 942 933 923 915 912 911 911 912 913 913 913 910 907 904 902 900 899 899 899
0 1216 1210 1205 1198 1188 1178 1168 1160 1153 1148 1144 1144 1138 1132 1126 1120 1113 1105 1097 1090 1084 1078 1073 1069 1063 1058 1053 1048 1044 1041 1038 1035 1031 1027 1023 1019 1017 1017 1018 1019 1020 1021 1021 1022 1023 1025 1027 1030 1034 1039 1044 1051 1058 1062 1065 1068 1070 1075 1082 1090 1099 1109 1118 1126 1134 1141 1147 1153 1157 1162 1167 1172 1178 1184 1186 1184 1183 1182 1182 1183 1185 1186 1187 1187 1188 1190 1192 1196 1200 1206 1212 1217 1222 1227 1231 1235 1239 1244 1250 1258 1267 1278 1289 1297 1302 1307 1310 1313 1319 1326 1331 1334 1334 1330 1324 1316 1306 1298 1295 1292 1288 1282 1282 1276 1266 1256 1246 1238 1231 1226 1222 1218 1214 1208 1201 1193 1184 1175 1168 1161 1152 1140 1130 1122 1115 1112 1110 1106 1099 1091 1082 1072 1066 1062 1059 1053 1048 1043 1038 1033 1029 1025 1022 1019 1016 1013 1009 1005 1001 998 995 993 993 993 992 991 990 989 988 988 988 988 988 990 993 996 1000 1003 1008 1014 1021 1028 1036 1044 1052 1060 1068 1077 1088 1100 1108 1112 1116 1122 1127 1129 1127 1124 1117 1110 1106 1101 1096 1091 1084 1078 1072 1066 1059 1054 1050 1047 1041 1036 1033 1031 1029 1027 1022 1013 1002 993 993 988 984 985 986 983 977 971 965 959 950 941 931 921 914 911 910 910 910 910 910 909 907 904 902 900 898 898 898 898
0 1209 1204 1199 1193 1184 1174 1165 1157 1150 1145 1140 1135 1135 1130 1123 1117 1109 1101 1093 1087 1082 1077 1073 1069 1065 1060 1055 1050 1045 1042 1039 1035 1032 1028 1023 1018 1016 1016 1016 1018 1019 1019 1019 1020 1020 1021 1024 1026 1030 1035 1040 1047 1053 1058 1061 1064 1067 1071 1077 1085 1094 1104 1113 1122 1131 1137 1143 1148 1153 1157 1162 1167 1172 1176 1178 1177 1175 1175 1175 1177 1179 1181 1181 1182 1183 1184 1187 1190 1195 1200 1206 1212 1218 1224 1228 1232 1236 1239 1245 1252 1261 1271 1282 1290 1297 1302 1306 1309 1315 1322 1326 1328 1328 1324 1319 1314 1308 1303 1299 1295 1291 1286 1277 1277 1267 1258 1249 1241 1234 1228 1223 1219 1215 1210 1203 1196 1189 1181 1174 1167 1159 1149 1139 1128 1118 1115 1115 1111 1104 1096 1087 1077 1070 1065 1061 1055 1050 1045 1040 1035 1030 1025 1021 1018 1014 1010 1007 1003 999 996 994 993 992 991 990 988 987 987 986 986 985 985 986 987 990 994 998 1004 1009 1015 1021 1028 1035 1042 1050 1057 1065 1073 1085 1098 1106 1109 1113 1119 1123 1124 1122 1118 1110 1103 1101 1099 1095 1087 1081 1076 1071 1064 1055 1049 1044 1039 1032 1026 1023 1022 1021 1020 1016 1009 999 991 987 987 984 984 985 982 978 972 966 959 950 939 929 919 912 910 909 909 908 907 907 906 904 902 901 899 897 897 897 897
0 1202 1197 1192 1186 1178 1170 1162 1154 1147 1142 1136 1131 1126 1126 1120 1114 1106 1099 1091 1085 1081 1077 1073 1070 1066 1061 1056 1051 1046 1043 1040 1036 1033 1029 1023 1018 1016 1015 1016 1017 1018 1018 1018 1018 1017 1018 1020 1023 1027 1031 1036 1043 1048 1053 1057 1061 1064 1068 1073 1078 1086 1096 1106 1118 1127 1134 1139 1143 1148 1153 1158 1164 1167 1169 1170 1169 1168 1169 1170 1171 1174 1175 1176 1177 1178 1179 1181 1185 1189 1193 1199 1206 1214 1221 1227 1231 1234 1236 1241 1247 1255 1264 1274 1283 1290 1296 1302 1307 1312 1318 1321 1321 1320 1318 1316 1313 1312 1309 1304 1298 1294 1290 1286 1280 1274 1266 1257 1247 1239 1232 1227 1223 1220 1215 1208 1201 1194 1187 1180 1172 1164 1154 1145 1134 1124 1119 1118 1113 1107 1099 1089 1079 1071 1067 1062 1057 1052 1046 1041 1036 1031 1026 1021 1017 1013 1009 1005 1001 997 995 993 992 991 990 988 986 985 984 984 984 983 983 984 985 987 991 996 1003 1010 1016 1022 1028 1034 1041 1049 1056 1064 1072 1083 1094 1102 1107 1112 1116 1120 1120 1118 1113 1104 1097 1094 1093 1088 1081 1075 1070 1066 1059 1050 1043 1037 1032 1024 1017 1014 1014 1014 1012 1009 1003 994 988 985 983 983 983 983 981 977 971 965 957 947 936 926 917 911 909 908 907 906 906 905 904 903 901 899 898 896 896 896 896
0 1196 1191 1186 1181 1174 1166 1158 1151 1145 1139 1133 1128 1123 1118 1118 1111 1104 1097 1089 1083 1079 1076 1073 1070 1066 1062 1057 1052 1047 1044 1041 1037 1034 1029 1024 1019 1016 1015 1015 1016 1018 1018 1017 1016 1015 1015 1017 1020 1024 1028 1032 1038 1043 1048 1052 1056 1060 1064 1068 1072 1080 1089 1100 1112 1123 1130 1135 1140 1144 1148 1153 1158 1160 1161 1162 1161 1161 1161 1162 1164 1166 1168 1170 1171 1172 1174 1176 1180 1185 1189 1194 1201 1210 1217 1224 1229 1233 1234 1238 1244 1250 1258 1267 1275 1282 1289 1295 1301 1307 1312 1315 1314 1313 1313 1312 1312 1313 1312 1307 1301 1297 1294 1291 1289 1282 1277 1267 1254 1245 1238 1233 1229 1226 1221 1215 1208 1201 1194 1185 1176 1167 1158 1149 1140 1131 1124 1119 1113 1107 1099 1089 1079 1072 1068 1064 1059 1054 1048 1042 1037 1033 1028 1023 1017 1013 1009 1005 1000 996 994 993 991 989 987 985 984 983 982 981 981 981 981 982 983 984 987 994 1002 1009 1016 1022 1028 1034 1041 1048 1056 1064 1072 1081 1089 1097 1104 1110 1114 1116 1116 1113 1108 1099 1091 1087 1083 1079 1073 1068 1063 1058 1052 1045 1038 1032 1025 1017 1009 1006 1006 1006 1004 1001 995 989 985 983 981 981 981 981 979 975 970 962 953 943 932 923 915 910 907 906 905 905 905 904 903 902 900 899 897 895 895 894 895
0 1191 1185 1180 1175 1169 1162 1155 1149 1143 1136 1130 1125 1120 1115 1115 1109 1103 1096 1089 1083 1078 1074 1071 1069 1065 1061 1057 1052 1047 1044 1041 1038 1034 1030 1025 1020 1017 1015 1014 1016 1017 1017 1016 1015 1013 1013 1014 1017 1020 1024 1028 1032 1037 1041 1046 1050 1054 1058 1062 1067 1074 1083 1094 1107 1118 1127 1133 1137 1140 1143 1146 1149 1152 1153 1154 1154 1153 1153 1154 1155 1156 1158 1160 1163 1165 1168 1171 1177 1182 1187 1192 1198 1204 1211 1219 1227 1231 1234 1238 1242 1246 1252 1259 1266 1272 1279 1286 1292 1298 1303 1306 1306 1307 1308 1309 1311 1313 1313 1310 1305 1302 1298 1295 1292 1286 1284 1273 1260 1251 1244 1238 1235 1232 1227 1220 1213 1206 1198 1189 1178 1169 1160 1152 1143 1135 1127 1120 1113 1107 1099 1089 1080 1073 1069 1064 1059 1054 1049 1044 1039 1034 1030 1023 1017 1012 1008 1003 998 994 992 991 989 987 985 983 982 980 980 979 979 979 980 981 982 983 985 992 1000 1007 1015 1022 1028 1034 1040 1047 1054 1063 1072 1079 1086 1094 1102 1108 1112 1113 1112 1108 1102 1093 1084 1077 1072 1068 1064 1060 1055 1050 1045 1038 1032 1025 1018 1010 1003 999 999 999 996 992 988 983 980 979 979 979 979 978 976 973 968 959 950 940 929 920 913 908 906 905 904 904 903 903 902 901 899 898 896 895 894 894 895
0 1188 1182 1176 1171 1165 1158 1152 1147 1141 1134 1128 1123 1118 1113 1108 1108 1102 1095 1089 1082 1077 1072 1070 1068 1064 1060 1056 1051 1047 1044 1041 1038 1034 1030 1025 1021 1017 1015 1014 1015 1016 1016 1015 1014 1012 1011 1012 1014 1016 1020 1023 1027 1031 1036 1040 1045 1049 1053 1057 1062 1069 1078 1088 1101 1112 1122 1130 1134 1136 1137 1139 1141 1143 1145 1146 1146 1145 1145 1145 1145 1147 1149 1152 1155 1159 1162 1167 1174 1180 1185 1190 1195 1199 1205 1214 1223 1228 1232 1235 1238 1241 1246 1252 1257 1263 1269 1276 1283 1289 1294 1297 1299 1301 1303 1306 1309 1312 1313 1311 1309 1306 1302 1298 1293 1287 1287 1276 1265 1256 1249 1244 1240 1236 1232 1226 1219 1210 1201 1189 1176 1167 1160 1153 1144 1135 1127 1120 1113 1106 1099 1090 1081 1074 1069 1064 1058 1053 1048 1044 1040 1036 1031 1024 1016 1011 1006 1001 996 991 989 987 986 984 982 981 979 978 977 977 977 978 979 980 981 982 985 990 996 1004 1013 1021 1027 1033 1039 1045 1052 1062 1071 1078 1085 1093 1101 1107 1111 1112 1109 1102 1094 1085 1075 1066 1059 1054 1052 1050 1046 1042 1038 1032 1025 1018 1010 1004 998 995 993 991 988 984 980 976 974 975 976 976 975 975 973 970 964 957 948 938 926 918 911 907 905 904 903 903 902 902 901 900 899 897 895 894 894 895 896
0 1188 1181 1175 1168 1162 1156 1151 1145 1140 1134 1128 1122 1117 1112 1107 1101 1101 1094 1088 1082 1076 1072 1069 1066 1063 1060 1056 1051 1047 1044 1041 1038 1034 1030 1025 1021 1018 1015 1014 1014 1015 1014 1013 1012 1010 1009 1010 1011 1013 1016 1019 1023 1027 1031 1035 1040 1044 1049 1053 1059 1065 1073 1082 1093 1104 1114 1124 1129 1131 1133 1132 1132 1134 1136 1137 1137 1136 1136 1136 1137 1138 1141 1144 1149 1153 1158 1164 1170 1176 1181 1186 1191 1196 1201 1208 1215 1220 1224 1227 1230 1233 1239 1245 1251 1256 1262 1268 1274 1280 1286 1291 1294 1297 1300 1303 1307 1310 1313 1313 1311 1309 1306 1301 1294 1286 1277 1277 1267 1260 1253 1248 1243 1239 1234 1229 1222 1212 1201 1188 1174 1165 1159 1152 1144 1135 1127 1119 1112 1105 1098 1090 1082 1075 1070 1064 1057 1051 1047 1044 1040 1036 1031 1024 1016 1009 1004 999 994 989 986 984 982 981 980 979 977 976 975 975 976 977 978 979 981 982 984 988 993 1001 1011 1020 1027 1033 1038 1043 1050 1060 1070 1078 1084 1091 1098 1104 1108 1109 1105 1096 1086 1075 1065 1055 1047 1042 1041 1040 1038 1035 1030 1025 1018 1010 1003 998 994 990 987 983 979 976 972 970 969 971 972 972 972 970 970 966 961 954 946 936 925 916 910 906 904 903 902 902 901 901 900 899 898 896 895 894 894 896 897
0 1191 1183 1175 1167 1161 1155 1150 1145 1139 1133 1128 1123 1117 1112 1106 1100 1100 1094 1087 1082 1076 1072 1069 1066 1062 1059 1055 1051 1047 1044 1041 1037 1033 1029 1025 1022 1019 1016 1014 1014 1013 1012 1010 1009 1008 1008 1008 1009 1010 1013 1016 1020 1024 1028 1031 1035 1040 1045 1050 1056 1062 1069 1076 1085 1094 1105 1116 1123 1126 1127 1125 1123 1125 1127 1129 1128 1127 1127 1128 1129 1131 1133 1138 1143 1149 1155 1161 1166 1171 1177 1182 1187 1192 1197 1201 1206 1210 1213 1217 1220 1224 1231 1238 1244 1250 1255 1260 1266 1272 1279 1285 1290 1295 1298 1301 1304 1309 1312 1313 1314 1312 1308 1302 1293 1284 1275 1266 1266 1260 1254 1248 1243 1238 1233 1228 1220 1210 1199 1186 1173 1164 1158 1151 1143 1134 1125 1117 1110 1103 1096 1089 1082 1076 1069 1063 1055 1048 1044 1042 1038 1034 1029 1023 1015 1008 1002 996 991 986 984 982 981 980 979 978 976 975 974 974 974 975 977 979 980 981 983 986 992 1000 1011 1020 1027 1032 1038 1043 1050 1060 1069 1076 1082 1088 1095 1100 1103 1104 1098 1087 1076 1064 1053 1044 1037 1033 1031 1030 1029 1028 1023 1018 1011 1004 997 992 989 985 980 976 972 968 966 965 965 966 968 968 968 966 966 963 958 952 944 935 924 916 910 906 904 903 902 901 900 899 899 898 897 896 895 894 895 896 897
0 1193 1185 1176 1167 1161 1155 1150 1144 1139 1133 1128 1123 1118 1112 1106 1100 1094 1094 1088 1082 1077 1073 1069 1066 1063 1059 1056 1051 1047 1043 1040 1036 1032 1029 1025 1022 1019 1016 1014 1012 1011 1009 1008 1007 1006 1006 1006 1006 1008 1010 1013 1017 1021 1025 1028 1031 1036 1041 1046 1052 1058 1064 1071 1079 1087 1097 1107 1114 1117 1118 1117 1115 1117 1119 1120 1120 1119 1119 1120 1121 1124 1127 1132 1138 1144 1151 1157 1163 1169 1174 1180 1184 1188 1191 1194 1197 1201 1205 1209 1212 1216 1222 1228 1235 1241 1247 1253 1258 1265 1272 1278 1284 1290 1294 1298 1302 1307 1311 1314 1315 1313 1309 1302 1292 1282 1273 1265 1265 1258 1252 1246 1240 1235 1229 1224 1216 1206 1195 1183 1172 1163 1156 1149 1141 1132 1124 1115 1107 1100 1094 1088 1081 1075 1069 1062 1053 1045 1041 1038 1035 1031 1026 1021 1014 1007 1000 994 988 984 982 981 980 979 978 977 976 975 974 973 973 974 976 978 980 980 981 985 991 1000 1011 1021 1026 1031 1037 1044 1051 1060 1068 1075 1080 1085 1091 1095 1097 1097 1090 1078 1066 1052 1040 1033 1029 1025 1023 1022 1021 1021 1016 1010 1004 997 991 987 984 979 973 968 964 962 960 960 960 962 963 964 964 963 960 960 956 949 942 933 923 916 911 907 904 903 901 900 899 898 898 897 897 896 895 894 895 897 897
0 1195 1187 1178 1169 1162 1156 1150 1144 1138 1133 1129 1124 1118 1113 1106 1100 1095 1089 1089 1084 1079 1075 1071 1068 1064 1060 1056 1051 1047 1043 1039 1035 1031 1028 1025 1022 1019 1016 1014 1011 1008 1006 1005 1004 1004 1004 1003 1004 1005 1007 1010 1015 1019 1022 1025 1028 1032 1036 1042 1048 1054 1060 1067 1074 1081 1089 1097 1102 1105 1107 1108 1108 1109 1112 1113 1112 1112 1112 1113 1115 1118 1122 1128 1134 1141 1148 1155 1161 1167 1173 1178 1181 1183 1184 1186 1189 1193 1198 1202 1205 1208 1212 1217 1223 1231 1238 1245 1251 1257 1264 1270 1278 1284 1289 1294 1299 1306 1311 1314 1315 1313 1308 1300 1290 1279 1272 1265 1258 1258 1251 1245 1238 1231 1225 1219 1211 1201 1190 1179 1169 1161 1154 1148 1140 1131 1122 1113 1104 1098 1092 1085 1079 1072 1065 1058 1050 1042 1038 1035 1032 1028 1023 1018 1012 1006 998 992 987 983 981 980 980 979 978 976 975 974 973 972 973 973 975 977 979 979 981 985 991 1000 1010 1019 1025 1030 1037 1044 1051 1060 1068 1073 1078 1083 1087 1090 1091 1089 1081 1069 1057 1045 1034 1028 1024 1020 1017 1015 1014 1013 1008 1001 995 989 983 980 977 972 966 961 958 956 955 955 955 956 958 959 959 958 956 951 951 945 937 929 921 915 911 907 904 902 901 899 898 897 896 896 896 895 894 894 895 896 897
0 1200 1192 1182 1173 1165 1158 1151 1145 1139 1135 1130 1125 1120 1114 1107 1101 1096 1091 1091 1087 1082 1078 1074 1070 1066 1061 1056 1051 1047 1043 1039 1035 1031 1027 1024 1022 1019 1016 1012 1009 1006 1004 1003 1002 1002 1002 1001 1001 1003 1005 1008 1012 1016 1020 1022 1025 1028 1032 1038 1044 1050 1057 1063 1069 1075 1081 1087 1092 1094 1097 1098 1100 1102 1104 1105 1104 1104 1105 1106 1108 1112 1117 1123 1130 1137 1144 1151 1158 1164 1170 1175 1177 1177 1178 1179 1181 1185 1191 1195 1197 1199 1203 1207 1213 1222 1230 1237 1244 1251 1257 1264 1272 1279 1285 1290 1296 1304 1309 1313 1314 1311 1306 1298 1288 1278 1271 1265 1257 1249 1249 1241 1235 1227 1219 1212 1204 1194 1183 1173 1164 1157 1152 1146 1139 1131 1121 1110 1102 1095 1089 1082 1074 1067 1060 1053 1045 1039 1035 1032 1028 1024 1019 1014 1009 1003 996 990 986 983 982 981 980 979 977 975 974 972 972 972 972 972 974 977 978 979 980 985 992 1000 1009 1017 1023 1029 1036 1043 1051 1059 1067 1072 1077 1081 1084 1085 1084 1080 1072 1061 1051 1042 1034 1027 1021 1017 1013 1010 1008 1005 999 991 985 979 974 971 969 964 959 954 952 951 950 949 949 950 952 953 954 953 951 946 946 938 929 923 918 913 910 907 904 902 900 898 897 896 895 895 895 895 894 894 895 895 896
0 1207 1199 1188 1177 1168 1161 1154 1148 1143 1139 1134 1128 1122 1116 1109 1103 1099 1094 1090 1090 1085 1081 1077 1073 1067 1061 1056 1051 1047 1043 1039 1035 1031 1027 1024 1021 1018 1014 1011 1006 1003 1002 1001 1001 1000 1000 999 999 1000 1002 1005 1009 1013 1017 1020 1023 1025 1029 1035 1041 1048 1054 1059 1065 1069 1075 1079 1083 1085 1088 1090 1092 1094 1095 1096 1096 1096 1098 1099 1103 1107 1112 1118 1125 1132 1139 1146 1153 1159 1164 1168 1171 1172 1173 1174 1175 1178 1181 1184 1187 1190 1194 1199 1206 1214 1223 1230 1237 1245 1252 1260 1267 1274 1280 1285 1292 1301 1307 1310 1311 1308 1303 1296 1286 1277 1270 1264 1256 1247 1236 1236 1225 1222 1213 1206 1197 1188 1178 1169 1160 1154 1150 1144 1137 1129 1120 1109 1099 1092 1085 1077 1069 1062 1055 1048 1042 1037 1032 1029 1025 1020 1015 1010 1005 1000 994 989 986 983 982 982 980 979 977 975 972 971 971 971 971 972 973 975 977 978 980 985 992 999 1007 1014 1020 1027 1034 1042 1050 1058 1066 1071 1075 1078 1080 1080 1077 1072 1064 1053 1045 1039 1033 1026 1019 1013 1009 1005 1002 998 991 983 976 971 967 964 961 957 952 948 946 945 944 943 943 944 945 946 947 946 944 939 931 931 922 917 914 911 909 907 904 901 898 897 896 895 894 894 894 894 894 894 894 895 895
0 1215 1208 1195 1183 1173 1164 1157 1153 1148 1143 1138 1132 1125 1119 1112 1106 1101 1097 1093 1089 1089 1084 1081 1076 1070 1063 1056 1051 1047 1043 1040 1036 1032 1028 1025 1022 1018 1013 1009 1004 1001 1000 1000 1000 999 998 997 997 998 1000 1003 1006 1010 1014 1017 1020 1022 1026 1032 1039 1045 1051 1056 1060 1064 1068 1072 1075 1077 1079 1081 1083 1085 1086 1087 1087 1088 1091 1094 1098 1102 1108 1114 1121 1127 1134 1141 1148 1154 1158 1161 1164 1166 1168 1169 1170 1171 1172 1174 1176 1180 1185 1192 1199 1207 1215 1223 1231 1239 1248 1256 1263 1269 1275 1281 1288 1297 1303 1306 1306 1304 1299 1293 1285 1276 1270 1263 1254 1243 1232 1232 1219 1208 1207 1200 1192 1183 1175 1166 1158 1151 1146 1141 1134 1127 1118 1108 1098 1089 1080 1071 1063 1056 1050 1045 1040 1035 1031 1027 1022 1016 1011 1005 1000 995 990 987 985 984 983 981 980 978 976 974 972 971 971 971 971 971 972 973 975 976 979 985 992 999 1005 1012 1017 1024 1031 1040 1049 1057 1065 1070 1074 1075 1075 1074 1071 1066 1058 1048 1041 1035 1030 1022 1015 1009 1004 1000 995 990 984 977 971 966 961 958 955 951 946 942 940 938 937 935 935 935 936 937 937 937 935 931 923 916 916 912 910 908 907 905 902 899 897 895 894 893 893 893 893 893 894 895 895 895 895
0 1223 1216 1203 1189 1179 1169 1162 1157 1153 1148 1143 1136 1130 1123 1116 1110 1105 1100 1096 1092 1092 1088 1085 1081 1074 1066 1060 1054 1049 1045 1042 1038 1034 1030 1026 1023 1018 1012 1007 1003 1000 999 1000 999 998 997 997 996 997 998 1000 1002 1006 1010 1014 1017 1019 1022 1028 1034 1040 1046 1051 1055 1058 1062 1065 1067 1069 1070 1072 1074 1076 1078 1079 1080 1082 1085 1089 1093 1099 1104 1110 1117 1123 1130 1136 1143 1149 1153 1156 1158 1160 1161 1162 1163 1164 1164 1165 1167 1171 1177 1184 1191 1198 1206 1214 1223 1233 1242 1251 1258 1265 1272 1278 1285 1292 1297 1300 1300 1299 1296 1291 1283 1275 1267 1259 1249 1238 1227 1214 1214 1203 1195 1194 1187 1180 1172 1164 1156 1149 1143 1137 1131 1124 1116 1107 1097 1086 1075 1066 1058 1051 1047 1043 1039 1034 1029 1024 1018 1012 1006 1000 994 990 987 985 984 984 982 980 979 977 975 973 971 970 970 970 970 970 971 971 973 975 979 985 992 998 1004 1009 1015 1021 1029 1038 1047 1056 1063 1068 1071 1072 1070 1067 1064 1061 1053 1044 1037 1032 1027 1019 1010 1004 999 994 989 983 978 972 967 961 957 954 951 946 941 936 933 931 929 928 927 927 928 928 928 927 925 922 916 910 910 907 906 905 904 902 900 897 895 894 893 892 892 892 892 892 894 895 895 895 895
0 1231 1225 1211 1197 1185 1175 1168 1163 1158 1153 1147 1141 1135 1128 1120 1114 1108 1104 1099 1095 1092 1092 1090 1087 1080 1072 1065 1058 1053 1048 1044 1040 1036 1032 1028 1024 1018 1011 1005 1002 999 999 999 999 998 997 996 996 995 995 996 998 1001 1005 1010 1013 1016 1019 1024 1029 1035 1040 1045 1049 1053 1056 1058 1060 1061 1062 1063 1065 1068 1070 1073 1074 1076 1080 1084 1089 1095 1101 1107 1113 1119 1126 1132 1139 1145 1149 1151 1153 1153 1154 1155 1156 1156 1156 1157 1159 1162 1169 1177 1183 1188 1195 1205 1216 1226 1236 1245 1253 1261 1269 1276 1282 1287 1290 1292 1293 1294 1293 1289 1281 1272 1263 1253 1243 1233 1222 1210 1198 1198 1190 1185 1183 1177 1171 1164 1156 1148 1140 1133 1126 1120 1113 1104 1094 1082 1071 1062 1054 1048 1044 1040 1036 1032 1026 1020 1014 1007 1001 995 990 986 984 983 982 981 979 978 976 975 974 972 970 969 968 969 968 969 969 970 972 975 979 985 991 997 1002 1008 1014 1021 1028 1037 1045 1054 1061 1065 1067 1066 1063 1060 1057 1053 1046 1037 1031 1028 1023 1014 1004 997 993 988 983 978 973 969 964 958 953 949 946 941 936 931 927 924 922 921 920 920 921 921 920 919 916 913 909 905 903 903 903 902 902 901 898 895 894 893 892 892 892 891 891 892 893 895 895 896 895
0 1236 1230 1216 1202 1190 1180 1173 1168 1163 1157 1152 1146 1140 1133 1125 1118 1112 1107 1103 1099 1096 1095 1095 1092 1086 1078 1071 1063 1057 1051 1046 1041 1038 1034 1030 1026 1019 1011 1005 1001 999 998 999 998 998 997 996 994 994 993 993 995 998 1002 1006 1009 1012 1015 1019 1024 1029 1035 1039 1043 1047 1049 1052 1053 1054 1055 1056 1058 1061 1064 1067 1068 1071 1075 1080 1086 1092 1098 1104 1110 1116 1122 1128 1135 1140 1144 1147 1147 1147 1146 1147 1148 1148 1148 1149 1150 1154 1160 1169 1176 1181 1189 1200 1212 1221 1230 1240 1249 1257 1266 1273 1278 1281 1283 1285 1286 1287 1287 1283 1276 1268 1258 1248 1238 1228 1217 1205 1194 1194 1186 1181 1176 1175 1170 1163 1155 1147 1137 1128 1122 1115 1108 1099 1090 1079 1069 1060 1051 1045 1041 1037 1033 1029 1023 1015 1008 1002 996 990 986 983 982 980 978 977 975 974 973 973 972 970 968 967 966 966 966 967 968 969 972 976 980 985 991 996 1001 1008 1015 1023 1030 1036 1044 1052 1059 1061 1061 1059 1056 1052 1048 1043 1037 1030 1025 1023 1019 1009 997 990 985 981 977 973 969 966 961 956 950 946 941 936 931 926 921 917 915 914 914 914 915 914 913 911 908 905 903 901 900 900 900 900 900 899 896 894 892 892 892 892 891 891 891 892 893 894 895 896 896
0 1238 1231 1217 1204 1194 1185 1178 1173 1168 1162 1156 1151 1145 1138 1130 1122 1116 1111 1107 1103 1101 1100 1098 1098 1093 1085 1078 1070 1062 1054 1048 1042 1039 1035 1031 1027 1020 1012 1006 1002 999 998 998 998 997 996 994 992 991 990 990 992 995 998 1002 1006 1009 1012 1015 1019 1023 1029 1033 1038 1041 1043 1045 1046 1047 1049 1051 1053 1056 1058 1061 1064 1067 1071 1076 1082 1088 1095 1101 1107 1113 1119 1124 1130 1135 1140 1142 1143 1141 1139 1139 1140 1140 1141 1142 1142 1145 1151 1160 1169 1178 1188 1199 1210 1219 1226 1234 1244 1253 1261 1267 1272 1274 1276 1278 1279 1278 1277 1273 1266 1259 1252 1245 1235 1223 1212 1201 1191 1183 1183 1177 1172 1169 1168 1161 1153 1144 1133 1123 1117 1110 1103 1095 1086 1077 1067 1058 1049 1043 1039 1035 1031 1026 1019 1011 1004 997 992 987 983 980 979 977 975 973 972 971 971 971 970 969 967 966 965 964 965 965 966 968 971 976 981 986 991 996 1001 1007 1016 1024 1031 1037 1043 1050 1056 1057 1056 1053 1049 1044 1039 1035 1029 1024 1019 1018 1013 1002 990 982 978 974 971 967 964 961 957 952 946 941 936 931 926 921 916 911 909 908 908 908 909 908 907 905 902 900 899 898 898 898 898 898 898 897 895 892 891 892 892 891 891 891 891 891 891 892 894 895 895
0 1239 1232 1219 1206 1197 1190 1183 1177 1172 1166 1160 1155 1150 1144 1135 1127 1120 1115 1110 1107 1105 1104 1103 1103 1098 1091 1083 1074 1066 1058 1050 1044 1040 1036 1032 1028 1022 1014 1008 1003 999 998 997 997 996 995 993 990 989 987 987 989 992 995 999 1002 1005 1008 1010 1013 1017 1022 1027 1031 1035 1037 1038 1040 1042 1043 1046 1049 1051 1053 1056 1059 1063 1068 1073 1079 1085 1091 1097 1103 1108 1114 1119 1124 1129 1133 1136 1137 1134 1132 1132 1132 1133 1134 1135 1135 1137 1143 1152 1163 1175 1187 1198 1208 1216 1222 1230 1240 1249 1256 1261 1265 1268 1269 1271 1272 1271 1268 1264 1258 1252 1247 1241 1232 1220 1208 1197 1188 1180 1174 1174 1169 1165 1160 1157 1148 1138 1127 1117 1111 1105 1098 1091 1083 1075 1066 1056 1046 1040 1037 1034 1029 1023 1016 1007 1000 994 989 984 980 977 975 974 971 969 968 968 968 969 969 968 966 965 964 964 963 964 965 967 971 977 983 987 992 997 1002 1008 1017 1026 1033 1038 1044 1049 1053 1053 1051 1047 1041 1036 1031 1026 1022 1018 1014 1011 1005 994 982 974 970 967 964 962 958 955 950 945 940 934 929 924 919 915 910 906 904 902 902 902 903 903 902 901 900 899 898 898 897 897 897 897 897 896 894 892 891 891 891 891 890 890 890 890 890 890 891 893 893
0 1241 1234 1221 1209 1200 1192 1186 1181 1175 1169 1164 1160 1156 1150 1141 1132 1124 1117 1113 1110 1107 1106 1103 1098 1098 1092 1084 1076 1068 1060 1052 1045 1041 1036 1033 1029 1023 1016 1010 1004 1000 997 996 995 995 993 991 989 987 986 986 987 990 992 995 998 1000 1002 1004 1007 1010 1015 1019 1024 1028 1030 1032 1034 1036 1038 1041 1044 1046 1049 1052 1055 1060 1065 1070 1076 1082 1088 1093 1097 1102 1106 1110 1115 1120 1124 1127 1127 1125 1124 1124 1124 1126 1129 1131 1130 1132 1137 1145 1157 1172 1186 1195 1202 1210 1217 1225 1236 1245 1251 1255 1259 1263 1265 1267 1267 1266 1263 1260 1255 1250 1244 1238 1228 1216 1205 1195 1186 1178 1172 1172 1166 1160 1154 1146 1143 1133 1122 1112 1106 1100 1094 1087 1080 1073 1065 1055 1044 1038 1035 1032 1027 1021 1014 1005 997 992 987 982 977 974 972 971 968 966 966 966 966 967 967 966 965 964 964 963 963 963 964 966 970 977 983 988 992 997 1002 1008 1017 1026 1033 1039 1044 1048 1050 1049 1046 1041 1034 1028 1023 1019 1015 1012 1008 1003 996 986 975 967 963 959 957 955 951 947 942 937 932 927 922 917 913 909 905 902 899 898 897 897 898 898 898 898 898 898 898 897 897 896 896 895 895 894 893 891 891 890 890 890 890 890 890 890 889 888 889 891 891
0 1243 1236 1225 1213 1203 1195 1188 1183 1178 1172 1167 1164 1163 1157 1148 1138 1129 1121 1115 1112 1110 1106 1102 1097 1090 1090 1084 1077 1070 1062 1054 1047 1041 1036 1032 1029 1024 1018 1012 1006 1001 998 996 994 993 992 990 988 986 985 985 986 988 990 992 993 994 996 997 1000 1003 1007 1012 1016 1020 1023 1025 1028 1031 1034 1037 1039 1042 1044 1047 1052 1056 1062 1068 1074 1080 1084 1088 1091 1094 1097 1100 1104 1109 1112 1115 1116 1116 1116 1116 1117 1121 1125 1128 1127 1128 1132 1139 1151 1169 1183 1190 1195 1202 1212 1221 1233 1242 1246 1249 1253 1258 1262 1263 1263 1262 1260 1258 1255 1250 1243 1235 1225 1214 1203 1193 1185 1178 1171 1164 1164 1156 1147 1139 1130 1128 1119 1111 1103 1097 1090 1083 1076 1069 1062 1052 1043 1037 1034 1031 1026 1021 1013 1003 995 991 987 982 976 973 970 968 966 965 964 964 965 966 966 966 965 964 963 962 962 962 963 966 969 975 981 986 991 996 1002 1009 1016 1024 1031 1038 1043 1046 1048 1045 1040 1034 1027 1021 1016 1012 1009 1005 1001 995 987 979 970 963 958 954 949 945 941 938 933 927 922 919 916 913 909 905 902 898 896 894 893 894 895 895 895 896 897 897 897 896 895 895 894 894 894 893 892 890 889 889 889 889 890 890 890 890 888 888 888 889 889
0 1247 1241 1232 1222 1211 1199 1191 1185 1180 1175 1172 1170 1170 1165 1156 1146 1137 1127 1121 1115 1110 1104 1099 1093 1088 1088 1082 1077 1070 1063 1056 1049 1042 1036 1033 1029 1024 1019 1014 1007 1002 998 996 994 993 991 989 987 985 984 984 985 986 987 988 989 989 990 992 994 997 1001 1004 1009 1013 1016 1019 1022 1025 1028 1031 1035 1037 1040 1043 1048 1053 1059 1065 1071 1076 1080 1083 1085 1087 1089 1091 1094 1097 1099 1102 1103 1105 1106 1108 1111 1115 1121 1125 1125 1126 1129 1135 1146 1163 1176 1182 1187 1195 1205 1215 1227 1237 1242 1244 1249 1254 1257 1259 1259 1259 1258 1256 1255 1251 1243 1233 1223 1211 1201 1192 1185 1178 1171 1163 1153 1153 1143 1133 1125 1119 1117 1110 1102 1094 1086 1079 1072 1065 1058 1050 1042 1037 1033 1030 1026 1021 1012 1002 994 991 987 982 976 972 969 967 965 964 963 963 964 965 965 965 965 964 962 961 961 961 963 965 969 974 979 983 988 995 1002 1009 1014 1020 1027 1035 1040 1044 1045 1041 1034 1027 1020 1014 1011 1007 1003 998 992 986 979 972 966 960 954 949 942 935 931 928 923 917 911 910 910 909 906 903 899 896 893 891 891 891 892 893 893 894 896 896 896 895 894 893 892 892 892 892 890 889 888 888 888 889 890 890 890 890 889 888 888 888 888
0 1253 1249 1244 1236 1222 1205 1194 1187 1182 1179 1177 1176 1177 1174 1166 1156 1147 1138 1128 1119 1109 1101 1093 1088 1084 1080 1080 1075 1071 1065 1058 1051 1043 1037 1033 1029 1025 1021 1015 1009 1004 999 996 994 992 991 989 987 985 984 983 984 984 985 985 985 985 986 987 989 991 994 998 1002 1006 1009 1013 1016 1019 1022 1026 1030 1033 1035 1039 1043 1049 1055 1062 1067 1072 1075 1078 1080 1081 1082 1083 1083 1084 1085 1086 1088 1092 1096 1100 1104 1110 1117 1122 1124 1126 1128 1132 1141 1153 1165 1173 1180 1188 1197 1207 1220 1232 1238 1242 1246 1249 1252 1254 1256 1257 1256 1256 1255 1252 1244 1234 1222 1209 1198 1192 1186 1179 1172 1163 1151 1151 1140 1130 1121 1115 1112 1109 1100 1091 1083 1075 1067 1061 1055 1048 1040 1035 1032 1028 1024 1019 1011 1001 993 990 986 981 976 972 969 966 964 963 962 962 963 964 964 964 963 962 961 960 960 961 962 965 968 972 977 982 987 993 1001 1007 1012 1017 1024 1031 1036 1039 1039 1034 1026 1019 1014 1009 1005 1002 997 992 986 979 972 967 962 957 951 944 936 929 923 920 915 909 904 904 905 905 902 900 896 893 891 890 889 889 890 890 891 893 894 895 895 894 893 892 891 891 890 889 889 888 887 887 888 889 890 891 891 890 889 888 888 888 888
0 1258 1256 1254 1248 1231 1211 1198 1190 1185 1183 1182 1182 1183 1180 1174 1166 1157 1148 1137 1124 1112 1101 1092 1086 1082 1079 1075 1075 1071 1066 1060 1053 1046 1039 1034 1030 1026 1022 1017 1011 1005 1000 996 994 992 991 989 987 986 984 983 983 983 983 983 982 982 983 984 985 987 989 992 996 1000 1004 1008 1011 1014 1017 1021 1025 1029 1031 1035 1039 1044 1051 1058 1063 1066 1070 1072 1075 1076 1076 1075 1074 1073 1073 1073 1076 1082 1088 1093 1099 1105 1113 1118 1122 1125 1127 1131 1137 1147 1157 1166 1174 1182 1190 1201 1214 1226 1233 1239 1242 1244 1247 1250 1253 1254 1255 1255 1255 1253 1245 1234 1221 1207 1196 1190 1186 1180 1173 1164 1151 1138 1138 1127 1118 1113 1110 1105 1098 1088 1079 1070 1063 1058 1052 1045 1038 1033 1030 1026 1021 1016 1009 1000 993 989 984 980 976 972 969 967 964 963 962 962 962 963 963 962 961 960 959 959 959 960 962 963 967 972 977 981 986 992 998 1005 1010 1015 1021 1026 1030 1032 1031 1025 1017 1011 1007 1004 1001 998 993 987 980 972 965 962 959 954 948 940 932 924 918 912 907 902 899 899 902 901 899 897 894 891 890 889 889 888 888 888 890 891 893 893 894 893 892 891 890 889 888 887 887 887 887 887 888 889 891 891 892 891 891 890 889 889 888
0 1265 1263 1262 1256 1238 1217 1203 1195 1189 1188 1188 1188 1187 1185 1180 1174 1167 1159 1148 1133 1119 1107 1097 1090 1084 1079 1075 1075 1071 1067 1063 1057 1050 1043 1038 1032 1028 1024 1019 1013 1007 1002 997 994 992 991 989 987 986 983 982 982 981 981 981 981 981 981 982 983 985 987 989 993 996 999 1003 1006 1009 1012 1017 1021 1024 1027 1031 1035 1039 1045 1051 1056 1060 1064 1067 1069 1070 1069 1068 1066 1065 1065 1066 1069 1075 1081 1087 1093 1100 1108 1114 1118 1122 1126 1130 1137 1146 1156 1163 1170 1178 1186 1196 1208 1219 1227 1234 1239 1242 1244 1248 1251 1252 1253 1253 1253 1251 1243 1233 1220 1205 1193 1188 1184 1179 1174 1165 1151 1137 1126 1126 1117 1111 1108 1103 1095 1087 1077 1067 1059 1054 1049 1043 1036 1031 1028 1024 1019 1014 1007 999 992 987 983 979 975 972 969 966 964 962 961 961 961 961 962 961 959 958 958 958 958 960 961 962 965 970 976 980 985 990 997 1003 1009 1014 1018 1022 1024 1025 1024 1017 1009 1005 1002 1000 997 993 988 981 974 965 959 956 954 950 943 935 927 919 912 906 901 897 895 896 898 898 896 894 891 889 888 888 887 886 886 886 888 890 891 892 892 892 891 889 888 887 887 886 886 886 886 887 888 890 891 892 892 892 891 890 890 889 889
0 1271 1269 1268 1261 1243 1222 1208 1199 1194 1193 1193 1192 1190 1187 1184 1180 1175 1169 1158 1142 1128 1117 1107 1098 1090 1083 1077 1073 1073 1070 1068 1062 1055 1048 1041 1035 1030 1026 1020 1014 1008 1002 998 994 992 991 989 987 985 983 982 981 980 980 979 979 980 980 981 982 983 985 987 990 994 996 999 1001 1005 1008 1013 1017 1021 1024 1027 1030 1034 1039 1044 1049 1053 1057 1061 1063 1064 1062 1061 1059 1058 1059 1061 1064 1069 1075 1082 1088 1096 1103 1109 1115 1120 1124 1129 1137 1147 1156 1162 1168 1175 1183 1192 1202 1212 1221 1228 1234 1239 1242 1246 1248 1250 1251 1251 1251 1248 1241 1232 1219 1203 1191 1186 1182 1178 1174 1166 1152 1138 1126 1126 1116 1109 1105 1100 1094 1086 1076 1065 1057 1051 1046 1039 1033 1028 1026 1022 1018 1012 1005 996 990 985 981 977 974 970 967 964 962 961 960 959 959 960 960 959 959 958 957 957 957 958 959 961 964 968 974 979 984 990 996 1002 1008 1013 1016 1018 1019 1019 1018 1012 1005 1001 999 996 993 989 982 974 966 958 951 948 946 941 935 929 921 913 906 900 897 895 894 894 895 894 893 891 889 887 885 884 883 883 883 884 886 888 890 890 890 889 888 888 887 887 886 886 886 886 886 888 889 890 891 891 891 891 890 889 890 890 890
0 1275 1273 1271 1264 1247 1226 1212 1204 1198 1197 1197 1194 1192 1189 1187 1183 1179 1174 1164 1149 1136 1128 1120 1111 1102 1093 1086 1080 1076 1076 1074 1069 1061 1053 1046 1039 1033 1027 1021 1014 1007 1001 997 994 992 990 988 987 985 982 981 980 979 978 978 978 979 980 980 981 982 983 985 988 991 994 996 999 1002 1005 1009 1013 1017 1021 1024 1026 1030 1034 1038 1042 1046 1050 1053 1055 1055 1055 1054 1053 1053 1054 1056 1060 1065 1071 1078 1085 1091 1098 1104 1110 1116 1123 1129 1137 1145 1153 1160 1167 1174 1182 1190 1198 1207 1215 1223 1229 1235 1239 1242 1245 1248 1250 1250 1249 1246 1239 1230 1217 1199 1187 1182 1180 1177 1174 1166 1152 1138 1127 1117 1117 1109 1104 1098 1092 1085 1075 1065 1056 1049 1043 1036 1030 1026 1024 1021 1016 1011 1003 994 987 983 979 976 972 968 965 962 960 959 958 958 957 958 958 958 958 958 957 956 956 956 957 959 962 966 971 977 984 990 996 1001 1007 1012 1014 1015 1015 1015 1013 1008 1001 998 996 993 989 984 976 966 957 950 944 940 936 932 927 921 914 906 901 896 894 894 894 894 893 892 890 888 886 885 883 880 879 879 880 882 884 886 888 889 888 887 886 886 886 886 886 886 886 887 887 888 889 890 891 891 890 889 888 888 889 891 891
0 1277 1274 1271 1264 1248 1230 1217 1208 1202 1200 1199 1196 1192 1189 1187 1184 1180 1175 1166 1155 1145 1140 1136 1128 1119 1109 1099 1090 1085 1085 1082 1076 1067 1059 1051 1044 1036 1028 1020 1012 1004 999 995 992 990 989 987 986 984 982 980 979 978 977 977 978 979 979 980 980 981 982 984 987 990 992 995 997 1000 1003 1007 1010 1014 1018 1021 1023 1025 1028 1032 1035 1039 1041 1044 1045 1046 1046 1047 1047 1048 1050 1053 1057 1063 1069 1075 1082 1087 1092 1098 1106 1113 1121 1130 1137 1143 1150 1159 1167 1175 1181 1188 1195 1202 1209 1217 1224 1230 1235 1239 1241 1245 1248 1249 1248 1244 1238 1229 1215 1195 1182 1179 1178 1176 1173 1165 1152 1139 1128 1118 1109 1109 1102 1095 1089 1083 1074 1064 1055 1047 1040 1033 1027 1023 1021 1019 1014 1009 1001 992 985 981 977 973 969 966 963 960 959 958 957 956 956 956 957 958 958 957 957 956 955 954 955 957 960 964 970 976 983 989 995 1000 1006 1010 1012 1013 1013 1012 1010 1005 999 995 992 988 983 977 969 958 949 941 935 930 927 923 918 913 907 902 898 894 893 893 894 893 892 890 889 887 886 884 881 879 877 878 879 881 884 886 888 888 887 885 885 885 886 886 886 885 885 886 887 887 888 889 890 890 888 887 887 887 888 890 891
0 1280 1276 1272 1264 1250 1233 1220 1211 1205 1202 1200 1196 1192 1189 1188 1185 1181 1176 1169 1159 1152 1150 1148 1143 1135 1126 1114 1103 1095 1089 1089 1081 1072 1063 1055 1047 1038 1028 1019 1010 1002 997 994 991 989 987 986 985 983 981 979 978 976 976 976 977 978 979 979 979 980 981 982 985 988 991 993 996 998 1001 1004 1007 1011 1015 1018 1020 1021 1023 1025 1028 1031 1033 1035 1036 1038 1038 1040 1041 1043 1045 1049 1053 1059 1066 1072 1079 1084 1088 1094 1103 1112 1121 1130 1137 1142 1148 1158 1167 1174 1180 1185 1191 1198 1204 1211 1218 1225 1231 1235 1238 1242 1246 1247 1244 1240 1234 1226 1213 1195 1183 1180 1179 1176 1171 1163 1151 1139 1127 1117 1108 1108 1100 1092 1086 1080 1072 1063 1054 1047 1039 1031 1024 1020 1019 1017 1012 1007 999 990 984 979 974 970 966 963 960 959 957 956 955 954 954 955 956 957 957 957 957 956 954 952 953 954 958 963 969 975 982 988 994 999 1004 1009 1011 1012 1012 1011 1008 1004 998 993 988 982 977 970 961 951 941 932 925 921 918 914 909 905 902 899 896 894 893 894 894 893 892 890 889 887 886 884 881 878 877 877 878 881 884 886 887 887 886 885 885 885 885 885 885 885 885 885 885 886 886 888 889 888 886 885 885 885 886 888 889
0 1283 1278 1273 1265 1251 1235 1223 1212 1205 1202 1200 1196 1192 1189 1188 1186 1182 1177 1171 1163 1157 1156 1156 1155 1152 1144 1133 1120 1109 1097 1086 1086 1074 1064 1056 1048 1039 1028 1018 1008 1000 995 993 990 987 985 984 983 982 980 979 977 975 975 975 976 977 978 978 978 978 979 980 983 986 989 992 995 996 999 1001 1004 1008 1012 1015 1016 1017 1018 1019 1020 1022 1024 1026 1028 1030 1031 1033 1035 1038 1041 1045 1049 1055 1062 1068 1075 1080 1085 1092 1102 1112 1121 1129 1136 1141 1148 1158 1167 1173 1178 1183 1189 1195 1200 1206 1213 1221 1227 1231 1235 1239 1242 1242 1238 1233 1228 1221 1212 1201 1191 1187 1183 1177 1170 1161 1149 1137 1125 1113 1104 1096 1096 1089 1083 1076 1068 1060 1052 1043 1037 1029 1022 1018 1017 1014 1010 1004 997 989 982 977 972 968 964 961 959 957 956 955 953 953 952 953 954 955 956 957 956 955 953 951 951 953 956 961 967 973 980 986 992 997 1002 1007 1009 1010 1010 1009 1006 1001 995 989 983 977 970 963 953 943 933 924 917 913 911 907 903 900 898 896 895 893 893 893 894 893 891 890 889 888 887 885 882 879 877 877 878 881 884 886 887 887 886 885 885 885 885 885 885 884 884 884 884 885 886 886 887 886 884 883 883 883 884 886 886
0 1286 1281 1275 1266 1253 1238 1226 1215 1208 1204 1202 1198 1193 1190 1189 1187 1184 1180 1174 1167 1162 1162 1163 1164 1164 1159 1147 1133 1118 1103 1089 1089 1076 1065 1057 1049 1039 1027 1017 1007 999 995 992 989 986 984 983 982 981 980 978 976 974 973 974 975 976 977 977 977 977 977 979 981 984 987 991 993 995 996 998 1000 1004 1008 1011 1012 1013 1013 1013 1014 1015 1016 1018 1021 1023 1025 1027 1030 1033 1036 1040 1045 1051 1057 1065 1072 1077 1083 1091 1102 1113 1121 1128 1135 1141 1148 1157 1166 1171 1174 1179 1185 1191 1196 1201 1207 1215 1222 1227 1231 1235 1237 1236 1232 1227 1222 1217 1212 1206 1200 1194 1187 1178 1168 1158 1147 1135 1122 1109 1100 1093 1087 1087 1080 1072 1065 1058 1050 1042 1034 1028 1021 1016 1013 1010 1006 1000 994 987 980 975 970 966 962 959 957 955 954 953 952 951 951 951 952 953 955 955 955 954 952 949 950 951 955 960 965 971 977 984 990 996 1001 1004 1006 1006 1006 1006 1004 997 990 983 977 971 963 955 945 935 926 918 912 908 905 902 899 897 895 895 894 893 893 893 893 891 889 889 889 889 888 886 884 881 879 879 880 882 884 886 886 886 886 885 885 885 884 885 884 884 883 883 883 884 885 885 886 885 883 882 882 882 882 882 883
0 1291 1285 1277 1268 1256 1243 1232 1223 1215 1211 1207 1202 1197 1194 1192 1191 1188 1185 1181 1175 1171 1169 1169 1169 1170 1164 1151 1136 1119 1102 1088 1076 1076 1065 1056 1048 1037 1026 1016 1007 1000 995 992 989 985 983 982 981 980 979 977 975 973 972 973 973 974 975 976 976 976 976 977 979 982 985 989 991 993 994 995 997 1000 1003 1006 1007 1007 1007 1007 1008 1009 1010 1013 1015 1017 1020 1022 1025 1028 1032 1035 1040 1046 1053 1061 1069 1076 1082 1091 1102 1113 1121 1127 1133 1139 1146 1154 1161 1166 1170 1174 1180 1185 1190 1195 1201 1209 1216 1222 1227 1230 1231 1230 1227 1224 1220 1216 1213 1209 1204 1197 1188 1178 1166 1155 1143 1131 1119 1106 1097 1090 1084 1078 1078 1071 1064 1057 1049 1042 1034 1027 1020 1015 1010 1006 1002 997 991 985 979 973 968 964 961 958 956 954 952 951 950 949 949 949 949 951 953 953 954 953 950 948 948 950 953 958 963 969 975 981 987 993 998 1002 1003 1002 1002 1002 1000 993 984 977 972 965 957 947 937 928 920 913 907 903 901 899 896 895 894 893 893 893 893 892 891 889 887 887 888 889 888 887 885 883 882 882 882 883 885 885 886 886 886 885 885 884 884 884 884 883 882 882 883 883 884 884 884 884 883 882 881 881 880 880 880
0 1297 1289 1281 1271 1260 1249 1239 1232 1225 1219 1214 1209 1203 1200 1198 1196 1194 1192 1188 1184 1179 1176 1173 1172 1171 1164 1150 1133 1117 1100 1086 1075 1065 1065 1055 1045 1035 1024 1015 1007 1001 997 993 989 985 982 981 980 979 978 977 974 972 971 971 972 972 973 974 974 975 975 976 978 980 983 987 989 990 991 992 993 995 998 1000 1001 1001 1002 1002 1002 1003 1005 1008 1011 1013 1015 1018 1021 1024 1027 1031 1036 1042 1049 1057 1066 1075 1083 1092 1103 1112 1119 1125 1131 1137 1144 1150 1156 1160 1164 1168 1173 1179 1184 1189 1195 1203 1210 1216 1221 1224 1224 1224 1223 1221 1219 1216 1214 1212 1207 1199 1189 1177 1164 1151 1139 1127 1115 1104 1095 1088 1082 1077 1077 1071 1064 1057 1050 1043 1036 1028 1021 1014 1009 1003 999 995 989 983 977 972 967 964 960 957 954 952 951 950 949 948 947 947 947 948 949 950 950 950 948 947 947 948 951 955 960 965 971 977 984 990 994 997 998 998 997 997 994 988 980 973 968 961 950 939 929 921 914 908 904 900 898 896 894 892 892 892 892 893 892 891 889 887 886 885 887 888 888 887 886 886 885 884 884 884 885 885 885 886 885 885 884 883 883 883 884 883 883 883 883 883 883 883 883 883 882 882 881 881 880 879 880
0 1300 1292 1285 1277 1268 1258 1250 1243 1237 1230 1223 1217 1212 1208 1205 1202 1200 1197 1194 1190 1185 1181 1176 1172 1169 1160 1145 1129 1113 1098 1086 1076 1066 1055 1055 1045 1034 1023 1015 1008 1003 998 994 990 986 983 981 980 979 977 976 974 972 971 971 970 971 971 972 973 973 974 975 976 978 981 984 986 987 988 989 989 991 993 995 995 996 996 997 998 999 1001 1004 1007 1009 1011 1014 1017 1020 1023 1027 1032 1038 1046 1055 1064 1073 1082 1091 1100 1109 1116 1121 1128 1134 1140 1145 1149 1154 1158 1162 1167 1172 1178 1183 1190 1197 1204 1211 1216 1219 1219 1219 1219 1218 1217 1215 1213 1212 1208 1200 1190 1177 1162 1148 1135 1123 1113 1103 1095 1088 1082 1077 1072 1072 1065 1058 1051 1044 1036 1029 1021 1014 1007 1001 997 993 987 982 976 972 967 963 960 956 953 950 949 949 948 947 946 945 945 945 946 946 946 946 946 945 946 947 949 952 957 962 968 974 980 985 989 992 993 993 993 990 987 981 975 969 964 956 944 931 921 914 908 904 901 899 897 894 891 890 890 891 892 892 891 889 887 885 884 884 885 886 886 887 888 889 889 888 886 886 885 885 885 885 885 884 884 883 882 883 883 884 884 884 883 883 883 882 882 882 882 882 881 881 880 880 880
0 1300 1294 1291 1286 1279 1270 1263 1257 1250 1241 1233 1228 1224 1220 1215 1210 1206 1202 1198 1194 1189 1184 1177 1170 1162 1151 1136 1121 1108 1097 1087 1078 1069 1057 1057 1045 1034 1024 1016 1010 1005 1000 996 991 987 984 982 980 978 977 975 973 972 971 970 969 969 969 970 971 972 972 973 974 976 978 981 983 984 984 985 985 986 988 990 990 991 992 993 995 996 998 1001 1003 1005 1007 1010 1013 1016 1020 1024 1029 1035 1043 1053 1063 1071 1079 1087 1096 1103 1110 1117 1123 1129 1134 1138 1142 1147 1151 1156 1161 1167 1172 1178 1185 1192 1199 1206 1211 1214 1214 1214 1215 1216 1215 1213 1211 1209 1206 1200 1192 1178 1160 1144 1131 1120 1111 1104 1097 1090 1083 1079 1074 1067 1067 1060 1053 1045 1037 1029 1022 1014 1007 1000 996 991 986 981 976 971 967 963 959 955 951 949 948 947 947 946 945 944 943 943 943 943 944 944 944 945 945 946 947 951 955 960 965 971 977 981 984 987 988 988 987 984 980 975 968 962 955 947 936 924 916 909 904 901 899 897 895 892 889 888 889 890 891 891 890 887 885 884 882 882 883 885 886 887 889 891 891 890 888 887 885 885 885 885 884 884 883 882 882 882 883 883 884 884 884 883 882 882 882 882 882 882 882 881 881 880 880
0 1301 1296 1294 1292 1286 1279 1273 1267 1260 1251 1242 1236 1233 1228 1222 1216 1210 1205 1201 1196 1191 1184 1176 1167 1156 1144 1130 1117 1106 1097 1088 1081 1071 1059 1047 1047 1036 1026 1018 1012 1007 1002 997 993 989 986 982 979 977 976 974 973 972 971 969 968 968 968 969 969 970 970 971 972 974 976 978 979 980 980 981 981 983 984 986 986 986 988 990 991 993 995 997 1000 1002 1004 1007 1010 1013 1017 1021 1027 1034 1041 1051 1061 1069 1076 1083 1090 1097 1104 1111 1117 1123 1127 1131 1135 1139 1143 1149 1155 1161 1167 1173 1180 1188 1194 1201 1206 1209 1210 1211 1212 1212 1212 1210 1209 1207 1204 1201 1194 1179 1158 1141 1127 1116 1109 1104 1098 1091 1085 1080 1075 1069 1069 1063 1055 1047 1038 1030 1022 1015 1007 1001 995 990 985 980 975 971 967 962 957 953 949 947 946 946 946 945 944 942 940 940 940 941 942 943 943 944 945 945 947 950 954 959 963 968 973 977 980 981 982 982 981 979 975 968 959 951 943 935 926 918 911 906 902 900 897 895 893 890 887 886 887 889 889 889 888 886 884 883 881 881 882 884 886 889 891 893 893 891 889 887 886 885 885 885 884 883 882 881 881 881 881 883 885 885 884 883 883 882 882 882 882 882 882 882 881 881 881
0 1302 1298 1295 1291 1287 1283 1278 1272 1265 1256 1247 1241 1238 1232 1225 1218 1212 1205 1200 1195 1190 1182 1174 1163 1152 1141 1130 1119 1110 1101 1092 1082 1073 1061 1050 1040 1040 1030 1022 1015 1009 1003 999 994 991 987 983 979 977 975 973 973 972 970 969 967 967 967 967 967 968 968 969 970 971 972 974 975 976 977 977 978 979 981 982 983 983 984 986 987 989 992 994 996 999 1001 1004 1007 1010 1015 1019 1026 1033 1042 1050 1059 1065 1071 1076 1082 1088 1095 1103 1109 1115 1119 1123 1126 1130 1135 1141 1148 1155 1162 1169 1176 1183 1189 1196 1201 1205 1208 1209 1209 1208 1208 1207 1206 1205 1203 1202 1197 1181 1158 1139 1122 1110 1105 1105 1100 1093 1087 1082 1077 1071 1065 1065 1058 1049 1039 1031 1023 1016 1008 1001 994 989 984 979 974 970 966 961 955 951 948 945 945 945 944 943 942 940 939 938 939 939 941 942 943 944 944 945 947 950 954 958 962 966 971 974 976 977 978 977 975 972 967 959 950 941 933 925 918 912 907 903 900 898 896 893 891 888 886 885 886 888 888 887 886 885 884 882 881 881 883 885 888 891 893 895 895 892 889 887 886 886 885 885 884 882 882 881 881 881 881 883 884 885 884 883 882 882 882 882 882 882 882 882 882 882 882
0 1302 1298 1294 1289 1287 1284 1280 1275 1268 1259 1250 1244 1240 1234 1227 1219 1211 1204 1198 1193 1187 1179 1170 1160 1149 1139 1131 1123 1114 1105 1094 1084 1073 1063 1053 1044 1044 1035 1027 1018 1011 1005 1000 996 993 989 984 980 976 974 973 972 971 970 968 967 966 965 965 965 966 966 967 968 968 969 970 971 972 973 974 975 977 978 979 980 981 981 982 984 986 988 991 993 996 999 1002 1004 1008 1012 1018 1025 1034 1042 1049 1056 1061 1065 1069 1074 1080 1086 1093 1100 1106 1111 1114 1117 1121 1127 1133 1140 1148 1157 1165 1172 1178 1184 1190 1196 1201 1205 1206 1205 1204 1204 1204 1203 1203 1202 1203 1200 1183 1159 1137 1117 1104 1102 1105 1102 1095 1089 1083 1078 1073 1068 1060 1060 1050 1041 1032 1024 1016 1009 1001 994 987 982 977 972 967 963 958 953 949 946 944 943 943 942 941 940 939 938 938 939 940 941 942 943 943 944 945 947 950 954 958 962 966 971 974 975 976 975 972 968 964 957 949 940 932 925 918 912 907 903 900 897 895 893 891 889 887 885 884 885 887 887 887 886 885 883 882 882 882 884 887 891 895 897 897 895 891 887 886 886 886 886 886 885 883 883 882 882 881 881 882 883 883 882 882 881 881 881 881 882 882 882 883 883 883 883
0 1301 1298 1293 1288 1286 1284 1281 1276 1270 1262 1253 1246 1240 1234 1227 1219 1211 1203 1197 1191 1185 1177 1169 1160 1150 1141 1134 1126 1117 1106 1095 1083 1072 1063 1055 1046 1038 1038 1029 1020 1012 1007 1003 998 995 990 985 980 977 974 972 971 970 969 967 965 964 963 963 963 964 964 965 966 966 967 967 968 969 970 971 972 974 975 976 977 978 978 979 980 982 984 987 990 993 996 999 1002 1005 1010 1017 1024 1033 1040 1046 1052 1056 1059 1063 1068 1072 1078 1084 1090 1096 1102 1105 1109 1114 1119 1126 1134 1142 1151 1159 1167 1173 1179 1185 1191 1195 1198 1199 1200 1200 1201 1202 1202 1202 1201 1203 1200 1183 1158 1136 1115 1101 1101 1106 1103 1096 1089 1084 1078 1073 1069 1062 1062 1053 1043 1034 1024 1016 1009 1002 994 987 980 975 969 964 960 955 951 947 945 943 942 942 940 938 937 937 938 939 940 940 941 942 943 943 943 944 946 950 954 958 962 967 971 974 975 975 972 967 962 955 948 939 930 924 918 913 908 903 899 896 894 892 890 889 887 885 884 883 884 886 886 886 886 884 883 882 882 884 887 890 895 899 900 898 895 890 885 885 886 886 887 887 886 885 884 884 883 883 882 882 881 881 881 880 880 880 880 881 881 882 883 883 884 884 884
0 1298 1296 1292 1287 1285 1282 1279 1276 1271 1263 1254 1247 1239 1232 1225 1218 1210 1202 1195 1189 1182 1176 1168 1161 1154 1146 1138 1129 1118 1106 1094 1080 1069 1062 1055 1048 1039 1031 1031 1022 1014 1009 1005 1001 997 992 987 981 977 974 972 971 970 968 966 964 962 961 961 962 962 963 963 964 964 964 964 965 966 967 968 969 971 973 974 975 976 976 976 977 979 981 983 986 990 994 997 999 1003 1009 1016 1023 1031 1038 1043 1047 1050 1054 1058 1062 1066 1070 1074 1079 1086 1092 1096 1101 1106 1112 1119 1127 1136 1144 1153 1161 1168 1174 1180 1185 1188 1188 1190 1193 1196 1199 1201 1202 1202 1201 1201 1198 1182 1158 1136 1115 1100 1101 1106 1104 1096 1089 1083 1078 1073 1069 1063 1055 1055 1046 1035 1025 1016 1009 1002 994 987 980 972 967 962 957 953 949 946 944 942 941 940 938 937 936 937 938 939 940 940 941 942 942 942 943 943 945 949 953 958 962 966 970 973 974 973 969 962 956 949 941 933 924 918 913 908 903 898 895 892 890 889 888 887 885 884 883 883 884 885 886 886 885 884 883 883 884 886 889 893 897 901 901 899 896 890 885 885 886 886 887 887 887 886 886 886 885 884 882 881 880 880 879 879 879 879 880 880 881 882 882 882 883 883 884
0 1293 1292 1288 1285 1282 1280 1278 1275 1270 1263 1254 1246 1237 1229 1223 1216 1208 1200 1193 1186 1179 1174 1168 1162 1156 1149 1141 1132 1120 1106 1093 1079 1067 1061 1055 1048 1040 1032 1032 1023 1016 1011 1008 1003 999 994 988 982 978 975 972 970 969 966 964 962 960 959 960 960 961 961 962 962 962 962 962 962 963 964 965 967 968 970 971 972 973 973 974 974 976 977 980 983 986 990 994 996 999 1005 1013 1020 1028 1035 1038 1041 1045 1048 1052 1056 1059 1062 1065 1069 1076 1082 1087 1093 1099 1105 1112 1121 1129 1138 1146 1154 1161 1168 1174 1179 1181 1180 1182 1187 1191 1195 1197 1199 1198 1197 1198 1194 1180 1158 1138 1118 1104 1103 1107 1105 1098 1090 1083 1076 1072 1069 1064 1056 1048 1048 1037 1025 1016 1009 1001 993 986 978 971 964 960 955 950 946 944 943 941 940 938 937 936 936 936 937 938 939 940 941 941 941 942 942 942 944 948 952 957 962 966 969 971 972 970 965 958 950 944 937 929 920 914 908 903 898 894 890 888 886 886 886 885 883 882 882 882 884 885 886 885 885 884 884 884 885 888 891 895 899 902 902 900 896 891 887 886 886 886 887 887 887 888 888 888 887 885 883 881 879 878 878 878 878 879 879 880 880 880 881 882 882 882 883
0 1286 1285 1282 1280 1279 1277 1276 1273 1269 1262 1253 1244 1235 1227 1221 1214 1206 1197 1189 1182 1176 1172 1168 1163 1158 1151 1144 1135 1122 1107 1092 1077 1065 1059 1054 1047 1040 1032 1024 1024 1018 1013 1010 1006 1000 995 989 984 979 975 972 970 967 964 962 960 959 959 959 960 960 960 960 961 961 961 960 961 961 961 962 963 965 966 968 969 970 971 971 972 973 975 977 979 982 985 988 991 994 1000 1008 1015 1024 1030 1033 1035 1038 1042 1046 1049 1052 1054 1056 1060 1066 1072 1078 1085 1091 1098 1106 1114 1123 1130 1137 1145 1154 1161 1167 1172 1174 1173 1175 1181 1186 1189 1191 1192 1191 1190 1191 1189 1176 1158 1141 1124 1112 1109 1109 1106 1100 1093 1083 1074 1069 1067 1063 1057 1050 1050 1039 1027 1017 1009 1001 991 983 975 969 963 958 954 949 945 942 941 940 938 937 935 934 934 935 935 937 938 939 939 939 940 940 940 941 942 946 950 955 960 964 968 969 970 968 962 953 945 939 932 924 916 909 904 898 894 890 888 885 884 884 884 883 882 882 882 882 883 885 885 885 885 884 884 885 887 889 893 896 899 901 901 900 897 892 889 887 886 886 886 887 888 888 888 889 888 885 883 880 878 877 877 877 878 879 880 880 880 880 880 880 881 881 882
0 1279 1279 1277 1275 1274 1274 1272 1269 1265 1258 1250 1241 1232 1224 1218 1211 1202 1193 1185 1178 1173 1170 1168 1164 1159 1154 1147 1138 1124 1108 1092 1076 1064 1058 1054 1048 1040 1033 1026 1020 1020 1016 1012 1007 1001 996 990 985 980 976 973 969 966 963 960 958 958 958 958 959 959 959 959 960 960 960 959 959 959 959 960 961 962 963 965 966 967 968 969 970 971 972 974 976 978 980 983 985 989 995 1002 1010 1018 1024 1027 1028 1032 1036 1039 1042 1044 1046 1048 1051 1056 1062 1069 1077 1084 1091 1099 1108 1116 1123 1129 1137 1146 1153 1160 1165 1167 1166 1169 1175 1180 1183 1184 1184 1184 1183 1184 1183 1173 1158 1145 1132 1122 1116 1112 1107 1102 1095 1083 1072 1067 1066 1062 1058 1051 1041 1041 1028 1018 1009 999 989 980 973 967 962 958 953 948 944 941 940 938 936 934 933 932 932 932 933 934 935 936 936 937 937 938 938 939 941 944 948 953 958 962 965 967 967 965 959 950 942 933 925 917 911 905 900 895 891 888 886 884 884 884 883 883 882 882 882 882 883 884 885 885 885 885 886 887 888 890 893 895 897 898 899 899 897 894 890 888 887 886 886 887 887 888 888 889 888 885 882 879 877 876 876 876 878 879 880 880 880 879 879 879 880 880 880
0 1275 1274 1273 1271 1270 1268 1266 1262 1258 1251 1244 1236 1228 1220 1214 1207 1199 1190 1183 1176 1172 1170 1169 1166 1161 1156 1150 1142 1128 1111 1094 1077 1064 1059 1056 1050 1043 1036 1030 1023 1023 1018 1012 1007 1001 996 991 986 982 978 973 969 966 962 959 958 958 958 958 958 958 958 958 959 959 958 958 957 957 957 958 959 960 961 962 963 964 966 967 968 968 969 971 972 973 975 978 980 983 989 996 1003 1011 1017 1020 1022 1025 1029 1032 1034 1036 1038 1041 1044 1049 1054 1061 1068 1075 1083 1091 1101 1109 1116 1122 1129 1137 1145 1152 1157 1160 1160 1163 1168 1172 1174 1175 1175 1175 1176 1178 1179 1172 1161 1151 1142 1132 1124 1117 1110 1105 1096 1083 1070 1065 1064 1061 1057 1051 1042 1030 1030 1019 1007 995 986 977 970 965 961 956 952 947 943 939 938 937 934 932 931 929 929 930 931 932 933 933 934 934 935 936 936 937 939 942 946 950 954 958 962 963 963 961 955 946 936 927 918 911 906 901 896 892 889 886 885 884 884 883 883 883 882 882 882 882 883 884 884 885 885 886 887 888 889 891 892 893 894 895 896 897 896 894 891 889 887 886 886 886 886 887 888 888 887 884 881 878 876 875 875 876 878 880 880 880 880 879 878 878 879 879 879
0 1271 1271 1270 1267 1265 1261 1258 1253 1249 1243 1236 1230 1223 1216 1210 1203 1195 1187 1181 1176 1172 1171 1171 1167 1163 1158 1153 1146 1132 1115 1098 1080 1066 1061 1059 1053 1047 1041 1034 1026 1019 1019 1012 1005 1000 995 991 987 983 979 975 970 966 962 960 958 957 957 957 957 957 957 957 958 958 957 957 956 956 956 956 957 958 959 960 961 962 963 965 965 966 966 967 968 969 971 973 975 978 983 989 996 1003 1008 1012 1015 1018 1021 1024 1026 1029 1031 1034 1038 1042 1047 1053 1060 1067 1074 1083 1093 1103 1109 1115 1122 1129 1136 1143 1149 1152 1154 1157 1161 1164 1165 1165 1166 1167 1168 1172 1175 1172 1165 1158 1151 1142 1132 1122 1114 1106 1097 1082 1068 1063 1063 1060 1056 1050 1042 1032 1032 1020 1004 992 982 975 969 964 960 955 951 946 940 938 936 935 932 930 928 927 927 928 929 930 931 931 932 932 933 934 935 936 938 940 944 947 951 955 957 958 957 953 946 936 927 919 912 906 902 897 894 890 888 886 885 884 884 884 884 883 883 882 882 882 883 883 884 885 886 888 889 890 890 891 891 891 891 891 892 894 894 892 890 888 886 885 885 885 885 886 886 887 886 883 879 877 874 874 874 876 878 880 880 880 880 879 878 878 879 879 0
0 1266 1268 1267 1264 1260 1254 1249 1245 1240 1234 1229 1223 1217 1212 1206 1201 1194 1187 1181 1177 1174 1173 1173 1169 1164 1159 1156 1149 1137 1120 1104 1085 1072 1066 1062 1057 1051 1044 1036 1027 1018 1009 1009 1002 997 993 991 988 985 981 976 971 967 963 960 958 957 957 956 956 956 956 956 956 956 956 955 955 954 954 955 956 957 958 959 959 959 961 962 963 963 963 964 965 966 967 969 971 974 978 983 989 995 1000 1004 1008 1011 1014 1017 1019 1022 1025 1028 1032 1035 1040 1046 1052 1059 1066 1075 1086 1096 1103 1109 1115 1122 1128 1134 1140 1143 1146 1149 1154 1157 1158 1157 1158 1160 1162 1167 1171 1170 1166 1161 1155 1148 1138 1126 1116 1107 1096 1081 1067 1062 1061 1059 1054 1047 1040 1032 1020 1020 1004 991 982 974 968 964 959 955 951 945 939 935 934 932 930 928 926 925 925 926 927 928 929 930 930 931 932 933 934 935 936 938 941 945 948 951 953 952 949 944 935 924 916 910 906 902 898 894 892 889 887 885 885 885 885 885 885 884 883 883 882 882 882 883 884 886 887 889 890 891 891 891 889 889 888 888 889 890 890 889 888 886 885 884 884 884 884 884 885 885 884 881 878 875 873 873 874 875 878 880 880 880 880 879 878 878 879 879 0
0 1264 1264 1264 1260 1254 1247 1241 1235 1230 1226 1222 1217 1211 1207 1203 1199 1194 1189 1184 1181 1178 1177 1175 1171 1165 1160 1158 1153 1142 1128 1112 1094 1080 1073 1068 1062 1056 1048 1038 1027 1015 1003 1003 996 993 991 990 989 986 982 978 973 968 965 961 959 957 956 955 955 955 955 954 954 954 954 954 954 953 953 954 955 956 957 958 957 957 957 958 959 959 960 961 962 963 964 966 968 970 973 978 982 987 992 996 1000 1004 1007 1010 1013 1016 1019 1022 1026 1030 1034 1039 1045 1052 1059 1068 1078 1088 1096 1104 1110 1116 1121 1126 1130 1133 1136 1140 1146 1150 1151 1151 1153 1155 1158 1163 1168 1168 1165 1161 1156 1149 1140 1130 1119 1107 1094 1079 1066 1061 1061 1057 1050 1043 1037 1030 1019 1005 1005 993 983 975 969 964 960 956 951 945 938 933 930 930 928 926 925 924 924 925 927 927 928 929 929 929 931 932 933 933 935 936 939 942 945 947 947 946 941 935 926 916 908 905 902 898 894 892 890 888 886 885 885 885 885 885 885 885 884 883 882 882 882 883 884 886 888 890 892 892 891 890 889 887 886 886 887 887 888 887 886 885 884 883 883 883 883 883 883 883 882 879 876 874 873 873 874 876 878 880 881 880 880 879 878 878 879 879 0
0 1262 1262 1258 1256 1249 1240 1233 1228 1223 1219 1214 1210 1205 1202 1199 1196 1192 1188 1185 1182 1180 1178 1176 1171 1165 1161 1159 1155 1146 1135 1120 1103 1088 1079 1072 1065 1059 1050 1039 1026 1011 996 989 989 986 985 987 989 987 984 980 975 970 966 962 959 957 956 955 954 953 953 953 953 953 953 953 952 952 952 952 953 955 956 957 956 955 955 955 956 956 957 958 959 960 962 963 964 966 969 972 976 980 985 989 993 996 1000 1003 1006 1010 1013 1016 1020 1024 1029 1033 1039 1045 1053 1061 1071 1081 1090 1098 1105 1110 1115 1118 1122 1125 1127 1132 1138 1144 1145 1145 1147 1150 1154 1159 1164 1164 1162 1159 1154 1147 1140 1131 1120 1106 1092 1078 1067 1062 1061 1057 1048 1039 1033 1028 1019 1007 1007 995 985 976 969 965 960 956 951 944 937 932 929 926 926 924 923 924 924 925 926 927 927 928 928 928 929 930 931 932 933 935 937 940 942 943 942 938 932 925 917 909 903 901 899 895 892 889 888 887 886 886 886 886 886 886 886 885 884 883 881 880 881 883 885 887 889 891 892 892 892 890 888 886 886 886 886 886 886 885 885 884 883 883 883 883 883 883 882 881 880 877 875 874 873 874 875 877 878 880 881 881 881 879 878 878 878 878 0
0 1260 1259 1254 1247 1244 1235 1228 1222 1217 1212 1208 1203 1199 1196 1193 1190 1187 1184 1182 1180 1178 1176 1173 1169 1165 1162 1159 1155 1148 1140 1128 1113 1099 1087 1076 1068 1060 1050 1037 1022 1004 987 977 975 975 976 982 988 989 987 983 979 974 968 963 959 957 955 954 953 952 951 951 951 951 951 951 950 949 949 950 951 953 954 955 954 953 952 952 952 953 953 955 957 958 959 960 961 962 964 967 971 974 978 982 986 990 993 996 1000 1005 1008 1011 1015 1019 1024 1029 1034 1041 1048 1056 1065 1074 1083 1091 1098 1103 1108 1111 1115 1118 1121 1126 1132 1137 1139 1140 1142 1146 1149 1154 1158 1158 1157 1154 1149 1142 1137 1129 1119 1104 1091 1080 1070 1065 1063 1057 1046 1036 1030 1025 1017 1007 997 997 986 977 970 964 959 955 950 944 938 933 928 925 922 922 922 923 924 925 926 926 927 927 927 927 928 928 929 930 931 933 935 937 939 939 936 932 925 917 910 904 900 898 897 893 890 888 886 886 886 886 886 886 886 886 886 885 885 883 881 880 881 883 885 888 890 891 892 892 891 890 887 886 886 886 886 885 885 884 884 884 883 883 882 882 882 882 881 880 878 876 875 874 874 875 876 877 879 880 881 881 881 879 878 878 878 878 0
0 1255 1254 1249 1242 1234 1230 1223 1218 1213 1207 1201 1197 1193 1190 1186 1183 1181 1179 1177 1176 1174 1172 1169 1167 1165 1162 1157 1152 1148 1143 1134 1121 1108 1093 1079 1069 1061 1050 1035 1019 999 979 967 963 965 965 974 985 988 989 987 982 977 970 964 960 957 955 953 951 950 950 949 949 949 949 949 948 947 947 947 948 950 952 953 952 951 950 950 949 950 951 953 955 956 956 957 957 958 960 963 966 969 973 977 980 984 986 990 995 999 1003 1006 1010 1015 1020 1025 1031 1037 1044 1051 1060 1068 1076 1084 1090 1096 1100 1104 1108 1112 1116 1120 1126 1131 1133 1134 1137 1141 1145 1148 1151 1152 1150 1147 1141 1135 1131 1126 1116 1103 1091 1081 1074 1069 1066 1058 1045 1033 1027 1023 1016 1007 998 988 988 978 970 964 958 953 948 943 938 933 928 923 921 919 921 923 924 925 926 926 926 926 926 926 926 926 927 928 929 931 932 934 935 934 931 927 920 913 907 902 899 897 895 892 889 887 886 886 886 887 887 887 887 887 886 886 885 883 882 881 881 883 884 887 888 889 890 890 890 888 886 885 885 886 886 885 885 884 884 884 883 883 882 881 881 881 880 879 878 876 875 875 875 876 877 878 879 879 880 880 879 878 877 877 877 878 0
0 1249 1248 1243 1236 1229 1221 1219 1214 1208 1202 1196 1191 1187 1184 1180 1176 1174 1172 1171 1170 1169 1167 1165 1164 1163 1160 1155 1150 1146 1142 1134 1123 1111 1096 1080 1070 1062 1051 1037 1021 999 977 963 955 954 954 965 978 985 988 988 984 978 971 965 960 957 955 952 951 949 948 948 948 948 948 947 946 945 944 944 945 947 948 950 950 950 949 948 948 948 949 951 953 954 954 954 954 954 956 959 962 965 968 971 975 978 981 984 989 993 996 1000 1004 1010 1016 1021 1027 1033 1039 1047 1055 1063 1071 1077 1083 1088 1092 1096 1099 1104 1109 1114 1118 1122 1125 1127 1131 1135 1139 1142 1144 1144 1143 1139 1133 1128 1124 1121 1113 1102 1092 1084 1077 1071 1067 1058 1045 1033 1029 1026 1019 1009 998 988 979 979 970 962 956 951 946 941 937 932 927 923 920 919 920 922 924 925 925 925 925 925 925 924 924 924 925 926 927 928 930 931 931 930 927 923 917 911 906 901 898 896 894 891 889 887 886 886 886 887 887 887 887 887 887 886 885 884 883 882 882 883 884 886 887 887 887 888 888 887 885 884 885 886 886 885 885 884 884 884 883 883 882 881 881 880 880 879 878 876 875 875 876 876 877 878 879 879 879 878 878 877 877 877 877 877 0
0 1242 1241 1236 1230 1223 1216 1210 1209 1204 1197 1191 1186 1181 1177 1172 1168 1166 1164 1163 1163 1163 1162 1161 1160 1160 1157 1152 1146 1142 1137 1130 1121 1110 1095 1081 1070 1062 1052 1040 1025 1004 981 963 949 945 955 955 969 978 986 988 984 978 972 966 961 958 955 952 950 948 948 947 947 947 947 946 945 943 942 941 942 943 944 946 947 948 948 947 947 947 948 949 951 951 951 951 951 951 953 956 958 961 963 966 970 973 976 979 983 987 990 993 999 1006 1013 1018 1023 1029 1035 1043 1051 1059 1066 1071 1076 1080 1084 1087 1090 1095 1101 1106 1110 1113 1116 1119 1123 1129 1134 1136 1137 1136 1134 1131 1124 1119 1117 1115 1110 1103 1095 1087 1079 1073 1067 1059 1046 1036 1032 1030 1023 1010 998 989 979 979 969 960 952 947 943 939 935 931 926 923 920 919 920 922 923 924 924 924 924 923 923 922 922 923 923 924 925 926 926 927 927 925 923 919 914 908 904 900 897 896 894 891 889 888 887 886 886 887 887 887 887 887 887 887 886 885 884 883 883 883 884 885 885 885 885 885 885 884 884 883 884 885 885 885 884 884 884 883 883 882 881 880 880 880 879 878 877 876 875 875 876 877 878 878 879 879 878 878 878 877 877 877 877 878 0
0 1233 1233 1229 1223 1217 1210 1205 1199 1199 1192 1186 1181 1176 1171 1165 1161 1159 1157 1156 1157 1157 1157 1156 1156 1155 1153 1148 1142 1138 1133 1126 1118 1108 1095 1082 1073 1065 1056 1045 1032 1011 989 969 952 944 951 963 963 974 984 987 983 976 971 966 962 958 955 952 949 948 947 947 947 947 946 945 944 942 940 939 939 940 941 943 945 946 946 946 946 946 946 947 947 948 947 947 947 948 950 953 955 957 959 961 964 968 971 974 977 981 984 988 994 1002 1008 1014 1019 1025 1031 1038 1046 1054 1059 1064 1069 1072 1076 1079 1082 1088 1094 1098 1102 1105 1108 1112 1116 1122 1127 1129 1129 1128 1125 1122 1116 1111 1109 1109 1106 1101 1096 1088 1079 1072 1066 1057 1047 1038 1036 1035 1026 1011 997 987 978 968 968 957 949 944 940 936 933 929 925 922 920 919 919 921 922 923 924 923 922 921 921 920 921 922 922 922 922 923 923 923 922 921 918 915 911 907 903 900 897 895 894 892 890 889 887 887 886 886 886 887 887 888 888 888 887 886 885 884 884 884 884 884 884 883 883 882 882 882 882 883 884 885 884 883 883 883 883 883 883 882 881 880 879 879 878 878 877 875 874 875 876 877 878 878 878 878 878 878 878 878 878 878 878 878 0
0 1225 1226 1222 1217 1211 1204 1199 1194 1189 1188 1181 1175 1170 1164 1159 1155 1153 1151 1151 1152 1152 1152 1151 1151 1150 1147 1143 1138 1133 1127 1120 1112 1104 1094 1085 1077 1070 1062 1052 1040 1023 1003 984 963 951 952 960 960 969 980 984 979 973 969 965 961 958 955 952 949 947 946 946 946 946 945 944 943 941 940 938 937 937 938 940 942 944 945 945 944 944 944 944 943 943 942 942 943 944 946 949 951 952 954 957 959 962 966 969 971 975 978 983 989 997 1004 1009 1014 1020 1026 1033 1040 1047 1052 1057 1061 1065 1069 1073 1077 1081 1086 1090 1093 1097 1101 1105 1110 1115 1119 1121 1121 1119 1116 1112 1108 1104 1103 1102 1101 1099 1095 1086 1076 1068 1062 1055 1047 1042 1041 1040 1030 1011 996 985 975 965 954 954 946 941 937 934 930 927 924 921 919 918 918 920 921 921 923 922 921 920 919 918 919 920 921 920 920 920 920 919 918 917 915 912 909 905 902 899 897 896 894 893 891 890 888 887 886 886 886 887 887 888 888 888 887 886 886 885 884 884 884 883 883 882 881 880 879 880 881 882 883 884 883 882 881 881 881 882 882 881 879 878 878 877 877 877 876 875 874 874 875 876 877 878 878 878 878 878 878 878 878 878 878 878 0
0 1220 1220 1216 1211 1205 1199 1194 1189 1184 1177 1176 1170 1163 1158 1153 1149 1147 1146 1146 1147 1147 1147 1146 1145 1143 1141 1137 1133 1128 1122 1115 1108 1101 1094 1088 1082 1076 1069 1060 1049 1035 1019 1000 978 964 961 963 970 970 979 982 977 971 967 964 961 958 955 952 948 947 945 945 945 945 944 943 942 941 940 938 936 936 936 938 940 942 943 943 943 943 942 941 939 938 937 937 938 940 942 944 946 948 949 952 954 957 960 963 966 969 973 979 985 992 998 1004 1009 1015 1021 1028 1034 1040 1045 1049 1054 1058 1062 1067 1071 1075 1078 1082 1086 1090 1094 1098 1103 1108 1112 1113 1113 1111 1107 1104 1100 1097 1096 1096 1096 1096 1092 1082 1072 1064 1057 1052 1048 1044 1044 1042 1030 1010 992 981 971 961 951 951 943 939 935 931 928 925 922 920 918 917 917 918 919 920 920 921 920 919 917 917 918 919 919 919 918 918 917 916 915 914 912 910 907 904 902 899 897 896 895 894 892 891 889 888 887 886 886 887 887 887 887 887 886 886 885 884 884 884 883 883 882 881 881 879 878 878 880 881 882 883 882 881 880 880 879 879 880 879 877 875 875 875 875 875 875 874 874 874 874 875 876 877 878 878 878 879 880 880 880 879 879 878 0
0 1215 1214 1211 1206 1200 1194 1189 1185 1180 1172 1164 1163 1156 1151 1146 1143 1142 1141 1141 1142 1142 1142 1141 1139 1137 1134 1130 1126 1121 1115 1110 1105 1101 1097 1094 1089 1084 1078 1070 1060 1047 1033 1017 998 985 980 980 982 985 985 984 978 972 968 963 960 958 955 951 948 946 945 944 944 944 944 943 942 940 939 937 935 935 935 936 938 939 940 941 941 940 939 938 936 935 933 933 934 935 937 939 941 943 945 947 950 952 955 958 961 965 969 975 980 986 992 998 1004 1011 1018 1024 1029 1034 1038 1042 1046 1050 1054 1061 1066 1070 1072 1075 1081 1086 1089 1093 1097 1102 1105 1106 1106 1103 1099 1096 1093 1090 1090 1090 1090 1090 1086 1077 1067 1060 1054 1050 1046 1044 1043 1041 1027 1005 986 975 966 957 948 941 941 937 933 929 926 923 920 918 917 916 916 917 917 918 919 918 918 917 916 916 917 918 918 917 917 916 915 914 913 911 910 909 906 903 901 899 898 897 896 895 894 892 890 889 887 886 886 887 887 887 887 886 885 884 884 883 883 883 883 882 882 881 880 879 877 877 879 880 881 882 881 880 879 878 877 877 877 876 874 873 873 873 873 874 874 873 873 873 873 874 875 876 877 878 879 880 880 881 881 880 879 879 0
0 1210 1209 1206 1202 1196 1190 1185 1181 1175 1167 1158 1150 1149 1143 1140 1137 1136 1136 1136 1136 1136 1136 1135 1133 1130 1126 1122 1117 1113 1109 1106 1103 1101 1100 1099 1096 1092 1086 1080 1071 1060 1047 1033 1019 1009 1005 1002 999 995 995 990 983 976 970 964 960 958 955 951 948 946 944 944 944 944 943 943 941 940 938 936 935 934 934 935 936 937 938 938 938 938 937 935 934 932 930 929 929 931 932 934 936 938 940 943 945 948 950 953 957 961 966 972 976 980 985 991 999 1006 1014 1020 1025 1029 1032 1035 1038 1042 1047 1054 1061 1065 1067 1070 1076 1082 1085 1087 1091 1095 1098 1099 1099 1096 1091 1088 1086 1084 1084 1084 1083 1082 1078 1070 1061 1056 1052 1048 1045 1041 1039 1035 1021 997 978 968 960 952 945 940 935 935 931 927 924 921 919 917 916 915 915 915 915 916 918 917 917 917 916 915 916 917 917 916 916 915 914 913 912 910 909 908 905 903 901 899 897 897 896 895 894 892 891 889 888 887 886 887 887 887 887 886 884 883 882 882 882 882 882 882 881 880 879 878 877 877 879 880 881 881 880 878 877 876 875 875 875 874 872 871 871 871 872 873 873 872 871 871 872 873 874 875 876 878 878 879 880 880 881 880 879 879 0
0 1204 1204 1202 1198 1193 1188 1182 1177 1171 1162 1152 1143 1135 1136 1133 1131 1131 1130 1130 1130 1130 1129 1128 1126 1123 1119 1114 1109 1105 1102 1100 1100 1100 1100 1100 1098 1095 1091 1086 1080 1070 1059 1048 1037 1028 1024 1020 1014 1007 1000 1000 993 985 978 971 965 960 956 951 947 945 944 944 944 945 944 942 941 939 937 935 933 933 933 934 934 935 935 935 935 935 935 934 933 931 928 927 926 927 928 930 932 934 936 939 941 944 946 949 952 957 962 968 972 974 979 986 993 1001 1009 1015 1019 1022 1025 1027 1030 1033 1038 1046 1054 1058 1060 1065 1071 1077 1079 1081 1084 1088 1091 1092 1090 1087 1083 1080 1078 1076 1076 1077 1076 1074 1070 1063 1056 1051 1048 1045 1042 1038 1031 1022 1007 987 971 961 954 948 942 937 933 933 929 925 922 919 917 916 915 915 914 913 913 915 916 916 916 915 915 914 915 915 916 916 915 915 914 913 912 910 909 907 905 903 900 898 897 896 896 895 894 892 891 890 888 887 887 887 887 887 887 885 883 882 881 880 880 880 881 881 881 880 879 878 878 878 879 880 880 880 879 877 875 874 873 872 872 871 870 869 870 870 871 871 871 870 870 870 871 872 873 874 876 877 878 878 879 879 879 879 880 880 0
0 1198 1199 1197 1194 1190 1184 1179 1174 1167 1157 1147 1138 1130 1124 1127 1125 1124 1124 1124 1123 1123 1122 1121 1118 1115 1111 1105 1101 1097 1094 1094 1095 1096 1097 1097 1096 1094 1092 1090 1087 1080 1071 1062 1052 1044 1039 1034 1028 1022 1015 1008 1008 1000 991 982 973 966 959 951 945 943 944 945 946 946 945 943 940 938 936 934 932 932 932 933 934 934 934 933 933 933 933 934 933 931 928 926 925 924 925 926 929 931 934 936 938 940 942 944 948 952 958 964 967 969 973 980 988 996 1003 1008 1012 1015 1017 1019 1022 1025 1029 1037 1045 1050 1054 1059 1065 1071 1073 1073 1076 1081 1083 1083 1082 1079 1074 1071 1069 1068 1068 1068 1066 1064 1060 1056 1051 1047 1044 1040 1038 1032 1019 1002 987 974 962 955 949 943 939 934 930 926 926 922 919 917 916 915 914 914 913 912 912 914 915 915 914 914 913 913 914 914 914 914 914 914 914 913 911 910 908 906 904 902 900 898 897 896 896 895 893 892 891 890 888 887 887 887 887 887 887 885 883 881 880 879 879 879 880 880 880 880 879 879 878 879 880 881 881 880 879 876 874 873 871 871 870 870 869 868 869 870 870 871 870 869 868 869 870 871 873 874 875 876 877 877 877 878 878 879 880 881 0
0 1191 1192 1191 1188 1184 1180 1175 1169 1162 1153 1143 1134 1125 1119 1114 1119 1117 1117 1116 1116 1115 1114 1113 1110 1107 1103 1097 1092 1089 1087 1087 1089 1091 1092 1092 1092 1092 1091 1091 1089 1084 1078 1071 1063 1055 1049 1043 1038 1032 1026 1020 1020 1013 1005 996 986 976 966 956 947 945 947 948 949 948 946 943 940 937 934 932 931 931 931 932 933 933 932 931 931 931 932 933 933 931 927 925 923 922 922 924 926 928 931 933 935 937 938 940 944 948 954 959 963 964 968 975 982 989 995 1000 1003 1006 1008 1010 1013 1016 1020 1028 1036 1042 1048 1053 1059 1064 1065 1066 1069 1073 1076 1075 1073 1069 1065 1062 1060 1059 1059 1058 1057 1055 1052 1049 1046 1042 1039 1036 1034 1027 1009 987 972 963 955 949 944 940 936 932 928 924 920 920 917 915 914 914 913 913 912 911 911 913 914 914 913 912 912 912 913 913 913 913 913 914 914 913 911 910 908 906 904 902 900 898 897 896 895 894 893 892 890 889 888 887 887 887 887 887 886 885 883 881 880 879 879 878 879 879 880 879 879 879 879 880 881 882 882 881 879 876 874 872 871 870 870 869 868 867 868 869 870 870 870 869 868 868 869 871 873 874 874 875 875 875 876 876 877 878 880 882 0
0 1183 1184 1183 1182 1178 1174 1169 1164 1158 1149 1139 1130 1121 1114 1108 1104 1110 1109 1108 1108 1107 1105 1103 1101 1098 1094 1089 1085 1082 1080 1080 1082 1084 1085 1085 1086 1087 1087 1087 1085 1082 1078 1073 1066 1059 1052 1045 1039 1035 1031 1028 1025 1025 1021 1016 1008 995 982 967 955 951 953 954 953 952 949 944 940 936 933 931 930 930 930 931 931 931 930 929 929 930 931 932 932 929 925 922 921 920 920 922 924 926 928 930 932 934 935 937 939 943 948 953 957 960 964 969 976 981 986 990 993 995 996 998 1001 1006 1012 1020 1028 1036 1043 1048 1052 1055 1057 1058 1061 1065 1067 1065 1062 1059 1056 1053 1051 1050 1049 1048 1047 1046 1045 1043 1041 1038 1034 1031 1030 1023 1003 978 963 956 949 944 940 936 933 929 925 922 918 918 915 913 913 912 912 912 911 910 910 911 912 912 912 911 911 911 911 912 912 912 912 912 913 912 910 909 907 906 903 901 900 899 897 896 894 893 892 891 890 889 888 887 887 887 887 887 886 884 883 881 880 879 878 878 878 879 879 879 879 879 880 881 883 883 883 881 879 876 874 872 871 870 869 868 867 867 868 869 869 870 870 869 868 869 870 871 873 874 874 874 874 875 875 876 877 878 880 883 0
0 1173 1174 1174 1173 1171 1167 1163 1158 1151 1142 1133 1124 1115 1108 1102 1098 1095 1100 1099 1099 1098 1096 1093 1091 1089 1086 1082 1078 1076 1074 1073 1075 1076 1077 1078 1080 1082 1082 1081 1079 1077 1075 1071 1066 1060 1051 1043 1038 1035 1033 1033 1034 1035 1035 1035 1028 1015 1001 983 968 962 962 961 958 955 950 945 940 936 933 930 929 929 929 929 929 929 928 927 928 929 930 931 930 927 922 920 919 918 919 921 922 924 926 928 929 931 932 933 935 938 942 947 951 955 959 964 969 973 976 979 982 984 985 987 991 997 1004 1012 1021 1029 1037 1043 1045 1046 1049 1051 1054 1057 1058 1056 1052 1049 1046 1044 1042 1040 1038 1037 1037 1038 1038 1037 1036 1033 1029 1026 1025 1019 999 975 960 952 945 940 937 934 931 928 924 920 916 913 913 912 911 911 911 910 910 909 909 910 910 910 910 910 910 910 910 910 911 910 910 910 910 910 909 908 907 905 903 901 900 899 897 896 894 893 892 891 889 888 888 887 887 887 886 886 885 884 883 881 880 879 878 878 878 879 879 879 879 880 881 882 884 885 884 883 880 877 874 872 871 870 869 868 867 867 867 868 869 870 870 870 870 870 871 872 874 874 875 875 875 875 876 877 878 880 881 884 0
0 1162 1163 1164 1164 1163 1160 1156 1150 1143 1134 1125 1117 1108 1102 1097 1092 1088 1085 1090 1089 1088 1086 1084 1083 1082 1080 1076 1072 1069 1066 1066 1067 1068 1070 1072 1074 1076 1077 1076 1074 1073 1071 1068 1064 1058 1051 1044 1039 1036 1035 1036 1037 1040 1040 1043 1039 1030 1019 1004 990 982 977 971 962 955 949 944 940 935 932 930 929 928 928 928 928 928 927 926 927 928 929 928 927 924 920 917 916 917 917 919 920 922 923 925 926 928 929 930 932 934 937 942 946 949 953 957 962 965 968 971 973 975 977 979 984 990 997 1005 1014 1023 1031 1037 1039 1040 1043 1046 1048 1051 1051 1048 1044 1041 1039 1036 1033 1031 1029 1028 1029 1031 1032 1032 1030 1028 1025 1022 1019 1013 998 979 965 953 944 940 937 934 931 928 924 920 916 912 910 910 910 910 910 909 909 909 908 909 909 909 909 909 909 909 909 909 908 909 908 908 908 907 907 906 906 905 903 901 900 899 897 896 895 893 892 890 889 888 887 887 887 886 886 886 885 884 882 881 880 879 878 878 878 879 879 879 879 880 881 883 886 887 886 883 881 877 874 872 870 869 868 868 867 867 867 868 869 870 870 871 872 872 873 873 874 875 875 876 876 876 877 878 880 881 883 885 0
0 1153 1154 1155 1156 1155 1153 1148 1142 1135 1127 1118 1110 1103 1097 1092 1087 1082 1078 1074 1079 1077 1076 1076 1075 1075 1074 1070 1067 1062 1059 1057 1058 1060 1063 1066 1068 1069 1070 1070 1070 1068 1065 1062 1058 1054 1049 1044 1041 1038 1036 1035 1036 1039 1043 1043 1044 1042 1037 1028 1017 1006 995 982 966 953 946 943 939 935 932 930 929 928 928 927 927 927 926 926 926 926 926 926 924 921 917 915 915 915 916 917 919 920 921 922 924 925 926 927 928 930 933 937 940 943 946 951 955 958 961 964 966 969 971 975 979 984 991 999 1007 1016 1024 1030 1033 1035 1038 1041 1043 1044 1044 1041 1037 1034 1032 1029 1025 1023 1021 1020 1022 1025 1027 1027 1025 1023 1021 1017 1012 1005 998 989 976 958 946 942 940 937 933 930 925 921 916 912 909 909 909 909 909 909 908 908 908 908 908 908 908 908 908 908 908 908 907 906 906 905 905 905 905 905 904 904 902 901 900 899 898 897 896 894 892 891 889 888 887 887 887 886 886 885 885 884 883 881 880 879 879 879 879 879 879 879 879 880 881 883 886 887 886 883 880 876 873 871 869 868 868 867 867 867 867 867 868 869 870 871 872 873 873 874 875 876 876 877 877 878 879 880 882 883 884 886 0
0 1145 1146 1148 1149 1148 1146 1141 1134 1127 1118 1111 1104 1099 1094 1089 1083 1077 1071 1067 1064 1069 1068 1068 1069 1069 1068 1064 1060 1056 1051 1050 1051 1052 1055 1059 1061 1062 1063 1064 1063 1061 1058 1055 1052 1049 1046 1042 1039 1037 1035 1034 1034 1038 1042 1045 1045 1047 1046 1041 1034 1023 1008 992 971 953 945 940 936 933 931 930 929 928 927 926 926 926 925 925 924 924 924 923 921 919 916 914 914 914 915 916 917 917 918 919 920 922 923 924 925 927 929 932 935 938 941 945 949 952 955 958 960 963 967 971 976 980 985 993 1001 1009 1017 1023 1027 1030 1034 1037 1038 1038 1037 1034 1030 1027 1025 1022 1018 1015 1014 1013 1015 1018 1020 1020 1018 1017 1014 1010 1003 996 994 991 980 962 949 944 943 939 935 931 926 921 916 911 908 908 908 907 907 908 907 907 906 906 906 907 907 907 907 906 907 907 906 904 903 903 902 902 903 903 903 902 901 900 899 899 898 897 897 895 893 892 890 889 888 887 887 886 886 886 885 884 883 882 881 880 879 880 879 879 879 879 879 880 881 882 884 885 884 882 879 876 872 870 868 867 867 867 867 867 867 867 868 869 870 871 872 873 873 874 876 877 878 878 879 880 881 882 884 885 886 888 0
0 1137 1139 1141 1142 1141 1139 1134 1126 1119 1111 1104 1099 1096 1091 1085 1079 1072 1065 1061 1058 1057 1062 1063 1063 1063 1061 1058 1053 1049 1044 1043 1043 1045 1048 1051 1053 1055 1055 1055 1054 1052 1050 1048 1045 1042 1040 1037 1035 1034 1032 1032 1032 1035 1039 1041 1043 1043 1044 1043 1039 1030 1017 1000 975 955 943 937 933 931 930 930 929 928 926 926 925 925 924 924 923 922 921 920 919 917 916 914 914 914 914 915 915 915 915 916 917 918 920 921 922 923 926 929 932 934 937 941 945 948 949 952 954 958 964 970 974 977 982 988 995 1002 1010 1016 1021 1025 1029 1033 1034 1033 1030 1027 1023 1020 1018 1015 1011 1009 1008 1008 1009 1011 1011 1011 1009 1008 1005 1000 992 986 985 986 978 965 954 949 946 941 936 931 926 922 916 911 908 907 906 906 906 906 906 906 905 905 905 906 906 906 906 905 905 905 904 903 902 901 900 901 901 901 901 900 899 899 898 898 898 898 897 896 894 892 890 889 888 887 887 886 886 885 885 884 883 882 881 880 880 880 880 879 879 879 879 879 880 881 883 883 882 881 878 874 871 869 867 866 867 867 867 867 867 867 867 868 869 870 872 872 872 874 876 877 878 879 880 882 883 885 886 887 888 890 0
